ncols         396
nrows         47
xllcorner     -120.928937141
yllcorner     47.48432038
cellsize      0.000339785875
NODATA_value  -9999
-9999 -9999 -9999 6014 6075 6108 6108 6146 6204 6275 6341 6402 6402 6481 6587 6669 6743 6830 6830 6899 6971 7034 6965 6878 6878 6845 6827 6772 6718 6691 6691 6681 6656 6663 6687 6687 6735 6773 6817 6923 6889 6889 6839 6816 6830 6939 6897 6897 6810 6750 6719 6723 6775 6775 6859 6932 6873 6800 6800 6730 6678 6629 6579 6521 6521 6477 6450 6426 6426 6413 6413 6410 6403 6394 6369 6356 6356 6316 6284 6275 6323 6320 6320 6268 6239 6157 6081 6081 6012 5969 5933 5912 5908 5908 5905 5902 5889 5889 5892 5892 5865 5812 5776 5746 5710 5710 5667 5674 5658 5636 5615 5615 5599 5587 5576 5557 5557 5532 5527 5520 5519 5517 5517 5511 5495 5478 5477 5467 5467 5453 5450 5433 5414 5402 5402 5391 5398 5399 5391 5389 5389 5389 5386 5386 5379 5379 5366 5366 5355 5336 5319 5319 5332 5329 5327 5323 5299 5299 5289 5302 5311 5315 5331 5331 5350 5357 5382 5403 5413 5413 5405 5382 5359 5360 5360 5357 5348 5336 5323 5309 5309 5294 5277 5267 5245 5222 5222 5189 5146 5110 5082 5055 5055 5019 4977 4932 4883 4883 4837 4784 4744 4717 4675 4675 4647 4622 4603 4596 4593 4593 4589 4589 4587 4586 4586 4586 4586 4586 4586 4586 4586 4586 4586 4586 4583 4583 4583 4585 4583 4576 4567 4569 4569 4589 4624 4652 4672 4694 4694 4717 4737 4757 4768 4780 4780 4790 4792 4792 4785 4782 4782 4797 4816 4832 4845 4845 4852 4898 4928 4954 4970 4970 4977 4983 5005 5035 5062 5062 5091 5117 5137 5160 5195 5195 5236 5277 5327 5370 5418 5418 5449 5457 5440 5431 5431 5477 5533 5599 5686 5753 5753 5810 5862 5920 5962 6019 6019 6074 6142 6217 6286 6346 6346 6405 6452 6418 6335 6335 6234 6146 6101 6050 6016 6016 5995 5986 5987 5987 6007 6007 6045 6083 6115 6145 6177 6177 6225 6278 6290 6296 6290 6290 6240 6217 6229 6245 6245 6274 6312 6369 6448 6545 6545 6647 6746 6827 6909 6993 6993 7097 7175 7247 7338 7423 7423 7514 7602 7678 7758 7819 7819 7866 7931 7988 8054 8054 8119 8191 8223 8354 8480 8480 8489 8437 8394 8361 8353 8353 8347 8349 8349 8349 8358 8358 8359 8327 8249 8161 8081 8081 8012 7964 7929 -9999 -9999 -9999
-9999 -9999 -9999 6048 6116 6144 6144 6178 6239 6306 6379 6450 6450 6525 6611 6698 6778 6862 6862 6935 6996 7038 6962 6885 6885 6852 6835 6793 6746 6746 6717 6705 6704 6728 6782 6782 6829 6886 6933 6959 6965 6965 6928 6933 7064 7064 6992 6992 6921 6882 6891 6936 6984 6984 6967 6903 6825 6773 6773 6720 6670 6630 6582 6523 6523 6470 6433 6418 6408 6408 6408 6402 6388 6379 6365 6327 6327 6272 6266 6266 6266 6263 6263 6253 6233 6160 6082 6082 6017 5957 5917 5906 5906 5906 5927 5927 5876 5878 5879 5879 5833 5788 5758 5731 5685 5685 5623 5624 5621 5596 5571 5571 5553 5543 5537 5518 5518 5492 5483 5480 5473 5483 5483 5481 5465 5445 5428 5406 5406 5395 5382 5375 5362 5358 5358 5355 5353 5346 5350 5352 5352 5352 5350 5341 5332 5332 5318 5294 5286 5267 5248 5248 5269 5272 5269 5264 5241 5241 5239 5250 5260 5266 5275 5275 5292 5305 5317 5340 5340 5349 5336 5313 5300 5294 5294 5281 5267 5269 5257 5240 5240 5220 5193 5189 5175 5143 5143 5104 5077 5058 5032 4996 4996 4967 4928 4889 4846 4846 4805 4764 4717 4677 4641 4641 4604 4596 4596 4594 4593 4593 4589 4586 4586 4589 4589 4589 4586 4586 4586 4586 4586 4586 4586 4584 4583 4583 4583 4583 4581 4577 4584 4599 4599 4625 4658 4685 4707 4731 4731 4754 4773 4794 4807 4817 4817 4827 4831 4828 4824 4826 4826 4836 4852 4865 4878 4878 4880 4932 4958 4972 4972 4972 4979 4992 5023 5063 5097 5097 5123 5144 5164 5192 5228 5228 5277 5327 5373 5422 5459 5459 5485 5492 5487 5485 5485 5529 5585 5675 5760 5828 5828 5878 5930 5976 6028 6068 6068 6117 6169 6246 6310 6398 6398 6478 6524 6498 6495 6495 6463 6301 6174 6154 6148 6148 6143 6134 6136 6185 6202 6202 6205 6208 6228 6245 6263 6263 6323 6380 6399 6394 6367 6367 6311 6254 6234 6252 6252 6269 6310 6354 6411 6521 6521 6645 6791 6881 6962 7035 7035 7133 7202 7269 7340 7414 7414 7493 7560 7619 7690 7757 7757 7830 7896 7938 8031 8031 8086 8102 8197 8356 8410 8410 8473 8428 8384 8350 8349 8349 8349 8349 8349 8356 8371 8371 8377 8304 8228 8150 8077 8077 8019 7971 7931 -9999 -9999 -9999
-9999 -9999 -9999 6081 6138 6173 6173 6193 6262 6333 6415 6498 6498 6576 6661 6736 6814 6891 6891 6967 7040 7031 6965 6932 6932 6912 6898 6880 6870 6870 6839 6850 6866 6898 6985 6985 7043 7081 7108 7132 7139 7139 7139 7151 7164 7126 7055 7055 6993 6979 7000 7035 7028 7028 6960 6893 6829 6786 6786 6759 6703 6663 6597 6536 6536 6486 6440 6421 6428 6429 6429 6416 6405 6401 6375 6329 6329 6295 6275 6282 6278 6279 6279 6255 6210 6161 6096 6096 6027 5951 5936 5937 5936 5936 5953 5935 5886 5868 5846 5846 5788 5752 5732 5706 5667 5667 5615 5560 5565 5557 5538 5538 5518 5507 5491 5477 5477 5450 5427 5431 5427 5437 5437 5439 5419 5394 5383 5374 5374 5357 5347 5331 5323 5320 5320 5320 5317 5310 5310 5310 5310 5310 5310 5300 5284 5284 5269 5239 5228 5213 5196 5196 5204 5210 5207 5205 5195 5195 5201 5211 5217 5221 5224 5224 5237 5251 5266 5289 5289 5294 5281 5254 5250 5245 5245 5231 5218 5204 5179 5148 5148 5120 5108 5102 5089 5066 5066 5038 5018 4992 4976 4954 4954 4921 4888 4850 4813 4813 4777 4738 4695 4656 4632 4632 4608 4603 4599 4596 4593 4593 4586 4586 4586 4586 4589 4589 4586 4586 4589 4589 4589 4589 4586 4589 4589 4592 4592 4593 4593 4593 4607 4645 4645 4675 4708 4734 4751 4771 4771 4830 4845 4862 4881 4899 4899 4909 4916 4916 4910 4906 4906 4900 4893 4879 4878 4878 4897 4919 4933 4943 4947 4947 4953 4996 5056 5102 5143 5143 5173 5200 5229 5259 5297 5297 5333 5375 5434 5480 5480 5514 5537 5551 5557 5560 5560 5592 5678 5774 5843 5906 5906 5956 6018 6067 6113 6150 6150 6198 6255 6319 6370 6441 6441 6500 6541 6565 6593 6593 6620 6478 6344 6294 6267 6267 6250 6231 6216 6212 6238 6238 6239 6238 6275 6306 6320 6320 6379 6423 6434 6426 6394 6394 6340 6280 6256 6268 6268 6312 6333 6411 6477 6583 6583 6720 6863 6941 7008 7067 7067 7121 7175 7238 7300 7366 7366 7467 7513 7563 7616 7739 7739 7804 7871 7898 8003 8003 7995 8036 8147 8300 8423 8423 8466 8419 8371 8353 8346 8346 8346 8346 8346 8355 8367 8367 8363 8278 8199 8126 8063 8063 8016 7974 7932 -9999 -9999 -9999
-9999 -9999 -9999 6068 6130 6173 6173 6207 6269 6337 6419 6505 6505 6588 6665 6739 6815 6896 6896 6971 7047 7040 6984 6961 6961 6948 6938 6947 6955 6955 6930 6950 6944 7000 7072 7072 7140 7181 7224 7256 7273 7273 7271 7293 7299 7219 7124 7124 7082 7089 7102 7099 7053 7053 6974 6917 6874 6841 6841 6788 6733 6689 6634 6576 6576 6527 6483 6468 6468 6451 6451 6431 6421 6411 6393 6351 6351 6326 6311 6319 6313 6292 6292 6262 6233 6182 6105 6105 6028 5976 5975 5968 5975 5975 5972 5946 5922 5887 5854 5854 5807 5721 5696 5675 5640 5640 5592 5521 5511 5510 5510 5498 5482 5462 5446 5432 5432 5402 5379 5382 5378 5385 5385 5389 5383 5374 5364 5354 5354 5341 5331 5321 5305 5294 5294 5287 5287 5281 5277 5277 5283 5284 5281 5269 5249 5249 5229 5207 5182 5173 5157 5157 5161 5165 5165 5165 5160 5160 5166 5172 5179 5179 5184 5184 5197 5207 5225 5243 5243 5241 5222 5211 5214 5206 5206 5190 5160 5133 5110 5084 5028 4999 4985 4973 4962 4953 4953 4940 4926 4908 4879 4858 4858 4839 4809 4780 4748 4748 4714 4679 4646 4632 4622 4622 4613 4604 4597 4593 4590 4590 4586 4586 4586 4586 4586 4586 4586 4586 4586 4586 4586 4586 4588 4589 4593 4597 4597 4612 4647 4685 4717 4753 4753 4777 4799 4822 4836 4852 4852 4866 4882 4901 4917 4934 4934 4947 4958 4962 4959 4959 4953 4944 4927 4910 4884 4884 4889 4910 4923 4936 4946 4946 4956 5007 5064 5116 5164 5164 5201 5235 5264 5298 5328 5328 5356 5408 5463 5506 5506 5538 5560 5564 5562 5564 5564 5622 5710 5796 5862 5928 5928 5985 6043 6097 6140 6180 6180 6235 6290 6348 6414 6474 6474 6512 6573 6623 6674 6674 6663 6561 6515 6499 6464 6464 6440 6413 6363 6340 6351 6351 6340 6352 6326 6350 6387 6387 6422 6450 6457 6448 6404 6404 6361 6315 6295 6288 6288 6365 6362 6454 6554 6637 6637 6751 6877 6938 6999 7046 7046 7078 7114 7187 7254 7354 7354 7430 7421 7482 7611 7723 7723 7753 7796 7904 7932 7932 7940 8024 8170 8311 8437 8437 8444 8404 8360 8350 8346 8346 8346 8349 8349 8356 8351 8351 8324 8248 8166 8096 8096 8042 8003 7967 7925 -9999 -9999 -9999
-9999 -9999 -9999 6038 6107 6168 6168 6214 6276 6341 6418 6505 6505 6581 6664 6740 6812 6894 6894 6976 7061 7091 7049 7000 7000 6986 6999 7042 7046 7046 7033 7081 7068 7127 7198 7198 7275 7344 7401 7421 7425 7425 7427 7440 7445 7350 7200 7200 7195 7205 7193 7151 7092 7092 7020 6962 6919 6877 6877 6817 6753 6725 6691 6638 6638 6575 6516 6523 6506 6466 6466 6435 6428 6415 6401 6377 6377 6349 6340 6336 6329 6311 6311 6273 6235 6183 6112 6112 6047 6030 6021 6012 6019 6019 5987 5949 5918 5874 5830 5830 5773 5702 5635 5628 5598 5598 5558 5508 5436 5456 5456 5447 5434 5416 5403 5387 5387 5368 5346 5345 5344 5353 5353 5365 5342 5340 5331 5319 5319 5306 5288 5282 5275 5262 5262 5246 5239 5230 5215 5215 5215 5218 5212 5202 5199 5199 5168 5134 5109 5098 5078 5078 5072 5072 5074 5075 5083 5083 5102 5116 5126 5130 5133 5133 5143 5158 5172 5179 5179 5170 5151 5140 5139 5127 5127 5104 5069 5036 5007 4986 4986 4964 4954 4934 4923 4914 4914 4901 4881 4867 4845 4822 4822 4802 4773 4744 4714 4714 4682 4653 4635 4625 4616 4616 4609 4606 4597 4594 4589 4589 4586 4586 4586 4586 4586 4586 4586 4586 4586 4586 4586 4586 4588 4593 4604 4629 4629 4665 4700 4730 4766 4795 4795 4819 4840 4858 4875 4891 4891 4908 4921 4934 4947 4967 4967 4993 5010 5015 5012 5012 5008 4999 4974 4947 4920 4920 4893 4909 4923 4933 4943 4943 4955 5015 5075 5134 5181 5181 5224 5261 5294 5323 5350 5350 5386 5436 5486 5529 5529 5560 5564 5564 5564 5575 5575 5638 5717 5798 5871 5938 5938 6000 6066 6117 6159 6204 6204 6270 6330 6388 6451 6500 6500 6553 6617 6668 6711 6711 6743 6719 6653 6648 6645 6645 6632 6613 6550 6542 6503 6503 6516 6501 6429 6391 6455 6455 6480 6483 6478 6458 6420 6420 6377 6347 6331 6318 6318 6408 6448 6496 6578 6649 6649 6726 6843 6901 6955 6986 6986 7011 7057 7118 7221 7310 7310 7316 7344 7431 7619 7672 7672 7681 7751 7878 7880 7880 7926 8084 8225 8325 8414 8414 8398 8369 8353 8346 8346 8346 8352 8359 8356 8358 8354 8354 8297 8228 8146 8078 8078 8026 7994 7954 7915 -9999 -9999 -9999
-9999 -9999 -9999 6043 6105 6168 6168 6223 6285 6347 6422 6501 6501 6572 6654 6733 6806 6893 6893 6976 7064 7122 7124 7094 7094 7087 7118 7159 7161 7161 7194 7209 7240 7272 7362 7362 7438 7471 7481 7476 7457 7457 7435 7432 7421 7389 7333 7333 7326 7328 7298 7203 7137 7137 7085 7002 6959 6911 6911 6840 6797 6774 6732 6674 6674 6609 6575 6561 6528 6489 6489 6469 6432 6411 6412 6431 6431 6423 6393 6367 6344 6344 6309 6282 6236 6179 6167 6167 6169 6131 6124 6123 6081 6081 5999 5926 5862 5796 5755 5755 5710 5657 5581 5518 5522 5522 5486 5450 5405 5328 5328 5335 5335 5333 5327 5317 5317 5292 5272 5277 5286 5295 5295 5306 5323 5323 5318 5311 5311 5296 5277 5270 5259 5246 5246 5233 5223 5210 5193 5193 5189 5189 5179 5164 5155 5155 5110 5094 5078 5072 5065 5065 5062 5062 5067 5068 5072 5072 5077 5090 5106 5111 5114 5114 5123 5139 5159 5163 5163 5150 5121 5109 5106 5088 5088 5066 5037 5000 4983 4967 4967 4954 4935 4915 4908 4896 4896 4876 4858 4836 4813 4787 4787 4761 4738 4712 4682 4682 4659 4636 4623 4612 4606 4606 4603 4596 4589 4589 4586 4586 4589 4586 4586 4586 4586 4586 4586 4586 4586 4586 4586 4586 4593 4608 4642 4675 4675 4711 4747 4781 4808 4829 4829 4854 4875 4895 4914 4931 4931 4944 4955 4968 4990 5014 5014 5036 5056 5061 5061 5061 5054 5042 5022 4994 4954 4954 4928 4913 4921 4931 4943 4943 4953 5012 5082 5143 5197 5197 5245 5283 5320 5344 5369 5369 5409 5460 5509 5550 5550 5561 5564 5567 5564 5578 5578 5623 5697 5795 5884 5951 5951 6017 6079 6129 6172 6220 6220 6292 6356 6420 6473 6524 6524 6589 6654 6707 6754 6754 6784 6826 6847 6855 6822 6822 6792 6773 6729 6715 6678 6678 6682 6619 6607 6495 6623 6623 6584 6529 6509 6469 6433 6433 6393 6373 6363 6353 6374 6428 6501 6560 6614 6663 6663 6715 6762 6793 6821 6858 6858 6903 6954 7019 7104 7161 7161 7202 7258 7345 7449 7449 7514 7562 7655 7766 7874 7874 8007 8163 8259 8306 8291 8291 8303 8307 8311 8328 8332 8332 8339 8345 8348 8359 8345 8345 8267 8198 8119 8054 8054 8017 7986 7948 7916 -9999 -9999 -9999
-9999 -9999 -9999 6063 6122 6178 6178 6232 6291 6351 6428 6501 6501 6563 6654 6728 6805 6891 6891 6975 7065 7136 7200 7227 7227 7263 7334 7391 7397 7397 7354 7353 7337 7332 7336 7336 7341 7349 7343 7317 7299 7299 7276 7267 7257 7275 7311 7311 7359 7427 7440 7347 7347 7242 7173 7121 7045 6983 6983 6939 6884 6828 6770 6719 6719 6682 6652 6611 6567 6525 6525 6472 6420 6392 6398 6440 6440 6437 6399 6387 6377 6377 6341 6295 6250 6229 6209 6209 6192 6163 6152 6114 6061 6061 6007 5935 5862 5775 5701 5701 5645 5588 5540 5486 5488 5488 5460 5418 5366 5314 5314 5289 5296 5296 5290 5281 5281 5262 5252 5258 5263 5264 5264 5277 5289 5297 5305 5305 5305 5299 5286 5273 5253 5237 5237 5227 5217 5204 5187 5187 5171 5155 5144 5121 5110 5110 5089 5072 5068 5065 5062 5062 5062 5062 5062 5065 5067 5067 5071 5077 5087 5100 5107 5107 5113 5117 5122 5123 5123 5104 5075 5074 5068 5058 5058 5039 5014 4988 4968 4954 4954 4944 4925 4915 4912 4900 4900 4879 4847 4820 4793 4793 4761 4735 4708 4682 4663 4663 4646 4630 4616 4606 4599 4599 4589 4586 4589 4588 4593 4593 4589 4586 4586 4586 4586 4586 4586 4586 4586 4589 4589 4593 4606 4644 4680 4713 4713 4749 4789 4816 4839 4864 4864 4888 4911 4933 4950 4968 4968 4993 5010 5027 5040 5063 5063 5082 5099 5109 5112 5112 5104 5088 5063 5026 4989 4989 4963 4952 4942 4944 4947 4947 4956 5044 5112 5156 5200 5200 5256 5299 5336 5381 5427 5427 5468 5510 5553 5571 5571 5577 5568 5567 5567 5585 5585 5627 5694 5781 5879 5972 5972 6036 6108 6150 6205 6268 6268 6336 6404 6464 6518 6581 6581 6643 6706 6753 6811 6811 6880 6940 7001 7052 7077 7077 7074 7056 7064 7055 7066 7066 6982 6886 6809 6807 6737 6737 6652 6582 6531 6485 6485 6449 6431 6419 6402 6388 6388 6424 6482 6543 6614 6660 6660 6696 6726 6748 6768 6802 6802 6851 6917 6983 7074 7131 7131 7165 7215 7295 7397 7397 7440 7503 7593 7730 7870 7870 8043 8160 8246 8212 8199 8199 8225 8222 8262 8300 8326 8326 8339 8343 8343 8336 8308 8308 8232 8166 8102 8043 8043 8012 7984 7948 7921 -9999 -9999 -9999
-9999 -9999 -9999 6077 6132 6182 6182 6254 6315 6387 6455 6522 6522 6596 6668 6743 6815 6914 6914 6990 7069 7134 7212 7212 7269 7349 7395 7368 7313 7313 7282 7267 7267 7270 7267 7267 7265 7268 7270 7258 7236 7236 7212 7196 7191 7207 7238 7238 7299 7335 7332 7315 7315 7286 7229 7169 7110 7026 7026 6968 6917 6865 6806 6750 6750 6701 6663 6621 6577 6532 6532 6483 6433 6393 6387 6406 6406 6412 6398 6395 6385 6385 6341 6304 6278 6250 6222 6222 6195 6167 6146 6105 6051 6051 5991 5914 5845 5773 5693 5693 5602 5543 5493 5448 5450 5450 5427 5376 5335 5297 5297 5253 5258 5261 5255 5245 5245 5235 5232 5239 5245 5241 5241 5253 5274 5284 5300 5305 5305 5306 5303 5280 5260 5240 5240 5230 5217 5204 5187 5187 5165 5147 5128 5105 5083 5083 5072 5065 5062 5062 5062 5062 5062 5062 5062 5062 5065 5065 5071 5074 5084 5097 5097 5107 5111 5105 5085 5078 5078 5068 5059 5049 5042 5035 5035 5016 4997 4981 4964 4950 4950 4938 4928 4922 4921 4915 4915 4880 4844 4807 4772 4772 4741 4718 4692 4669 4653 4653 4640 4623 4607 4600 4597 4597 4587 4592 4599 4599 4596 4596 4590 4586 4586 4586 4586 4586 4586 4586 4593 4609 4609 4642 4668 4700 4736 4774 4774 4818 4854 4885 4914 4940 4940 4968 5006 5040 5066 5089 5089 5105 5125 5142 5156 5166 5166 5176 5189 5215 5245 5245 5253 5217 5171 5129 5093 5093 5056 5023 4994 4979 4961 4961 4960 5087 5177 5224 5252 5252 5265 5312 5357 5393 5439 5439 5486 5532 5573 5600 5600 5592 5571 5567 5569 5608 5608 5657 5705 5784 5880 5972 5972 6045 6115 6165 6225 6302 6302 6365 6428 6489 6546 6546 6601 6663 6722 6781 6848 6848 6899 6951 7032 7084 7113 7113 7176 7166 7187 7188 7161 7161 7083 6953 6888 6843 6766 6766 6669 6595 6542 6502 6502 6478 6456 6444 6429 6402 6402 6425 6468 6535 6606 6648 6648 6671 6699 6709 6722 6754 6754 6802 6874 6949 7013 7068 7068 7127 7185 7252 7357 7357 7380 7472 7584 7722 7903 7903 8049 8110 8131 8121 8119 8119 8131 8148 8210 8303 8336 8336 8349 8356 8341 8320 8250 8250 8196 8130 8075 8029 8029 8002 7976 7944 7917 -9999 -9999 -9999
-9999 -9999 -9999 6070 6134 6187 6187 6267 6337 6407 6478 6544 6544 6617 6685 6757 6830 6924 6924 7003 7076 7138 7213 7213 7279 7358 7341 7306 7265 7265 7216 7191 7194 7195 7197 7197 7201 7204 7212 7193 7164 7164 7147 7133 7130 7144 7186 7186 7238 7248 7227 7220 7220 7206 7160 7163 7157 7081 7081 7004 6962 6905 6836 6776 6776 6716 6676 6640 6595 6545 6545 6493 6459 6418 6389 6374 6374 6367 6363 6359 6354 6354 6326 6299 6269 6231 6199 6199 6151 6129 6129 6094 6031 6031 5934 5848 5785 5742 5677 5677 5598 5544 5480 5429 5400 5400 5377 5339 5307 5273 5273 5238 5226 5230 5225 5213 5213 5205 5217 5228 5232 5236 5236 5257 5281 5288 5300 5313 5313 5321 5318 5287 5270 5270 5251 5242 5231 5207 5185 5185 5161 5135 5118 5096 5076 5076 5068 5062 5062 5062 5062 5062 5062 5062 5062 5062 5064 5064 5075 5097 5118 5118 5118 5121 5127 5131 5128 5125 5125 5116 5095 5059 5022 4994 4994 4981 4968 4957 4944 4928 4928 4920 4910 4897 4881 4865 4865 4836 4804 4768 4738 4738 4711 4685 4668 4652 4636 4636 4625 4616 4610 4606 4603 4603 4594 4586 4596 4593 4590 4590 4589 4586 4586 4586 4586 4586 4586 4592 4618 4655 4655 4688 4714 4735 4762 4805 4805 4848 4889 4921 4950 4989 4989 5032 5068 5099 5125 5149 5149 5175 5198 5219 5239 5255 5255 5278 5302 5327 5356 5356 5386 5352 5247 5195 5159 5159 5113 5072 5038 5017 4992 4992 4980 5123 5207 5248 5278 5278 5286 5319 5355 5385 5432 5432 5495 5551 5594 5606 5606 5598 5571 5567 5567 5609 5609 5662 5715 5781 5879 5959 5959 6044 6124 6181 6261 6325 6325 6388 6447 6509 6559 6559 6621 6680 6739 6808 6872 6872 6933 7000 7103 7173 7227 7227 7321 7347 7331 7271 7185 7185 7093 6986 6952 6890 6822 6822 6715 6631 6575 6536 6536 6508 6484 6465 6445 6431 6431 6424 6435 6496 6579 6614 6614 6641 6658 6654 6673 6722 6722 6777 6834 6896 6957 7006 7006 7070 7139 7207 7278 7278 7346 7453 7575 7739 7892 7892 7972 7953 8003 8039 8042 8042 8050 8103 8272 8321 8352 8352 8372 8376 8351 8283 8204 8204 8140 8089 8039 8006 8006 7979 7956 7921 7894 -9999 -9999 -9999
-9999 -9999 -9999 6056 6129 6193 6193 6276 6347 6416 6489 6558 6558 6634 6702 6774 6846 6931 6931 7007 7079 7148 7223 7223 7291 7346 7312 7268 7213 7213 7154 7115 7106 7113 7118 7118 7125 7141 7149 7138 7112 7112 7088 7084 7084 7093 7114 7114 7151 7164 7152 7130 7130 7114 7056 7075 7069 6997 6997 7019 6974 6947 6896 6826 6826 6766 6707 6664 6611 6567 6567 6518 6479 6439 6398 6347 6347 6314 6304 6286 6289 6289 6278 6264 6231 6188 6129 6129 6085 6081 6097 6070 6006 6006 5902 5807 5742 5693 5631 5572 5519 5470 5427 5390 5390 5358 5313 5277 5255 5236 5236 5201 5171 5178 5183 5195 5195 5205 5219 5236 5246 5257 5257 5270 5278 5282 5285 5285 5285 5286 5281 5272 5262 5262 5249 5239 5208 5178 5151 5151 5131 5111 5086 5068 5062 5062 5062 5062 5062 5062 5062 5062 5062 5062 5062 5062 5064 5064 5074 5101 5120 5124 5124 5127 5131 5134 5140 5153 5153 5158 5140 5103 5040 5000 5000 4978 4958 4940 4925 4912 4912 4898 4875 4862 4841 4832 4832 4810 4781 4749 4718 4718 4692 4672 4662 4648 4633 4633 4625 4619 4613 4607 4603 4603 4599 4587 4592 4593 4589 4589 4586 4586 4586 4586 4586 4586 4589 4615 4661 4700 4700 4734 4758 4780 4803 4844 4844 4886 4924 4960 5005 5049 5049 5091 5127 5162 5208 5244 5244 5271 5287 5310 5335 5356 5356 5379 5407 5443 5508 5508 5582 5415 5306 5260 5221 5221 5169 5119 5095 5073 5034 5034 5003 5172 5240 5277 5304 5304 5315 5326 5359 5394 5394 5443 5505 5561 5604 5606 5606 5592 5567 5567 5567 5602 5602 5656 5705 5762 5862 5943 5943 6038 6136 6210 6291 6349 6349 6406 6463 6522 6569 6569 6634 6693 6758 6836 6902 6902 6981 7065 7178 7248 7328 7328 7380 7463 7401 7293 7195 7195 7126 7056 6976 6906 6851 6851 6752 6673 6614 6564 6564 6531 6504 6481 6474 6458 6458 6451 6445 6460 6495 6558 6558 6587 6611 6611 6652 6708 6708 6754 6791 6850 6920 6967 6967 7015 7093 7181 7263 7263 7325 7447 7575 7744 7853 7853 7855 7867 7938 7950 7952 7952 7966 8104 8252 8324 8358 8358 8411 8360 8270 8182 8112 8112 8055 8019 7989 7953 7953 7927 7894 7858 7828 -9999 -9999 -9999
-9999 -9999 -9999 6039 6119 6198 6198 6277 6344 6418 6488 6562 6562 6642 6715 6784 6857 6931 6931 7006 7079 7149 7234 7234 7290 7326 7293 7237 7172 7172 7105 7063 7046 7042 7037 7037 7033 7048 7065 7070 7055 7055 7041 7028 7025 7039 7049 6966 6972 6975 6969 6942 6942 6909 6856 6855 6836 6787 6787 6819 6787 6779 6806 6760 6760 6697 6663 6588 6546 6499 6499 6440 6387 6341 6265 6265 6207 6177 6158 6148 6128 6128 6129 6085 6063 6045 6013 6013 5974 5954 5950 5931 5861 5861 5795 5744 5678 5601 5536 5536 5485 5435 5384 5364 5364 5341 5310 5274 5244 5192 5192 5161 5156 5160 5176 5189 5189 5202 5224 5241 5248 5252 5252 5261 5268 5271 5271 5271 5271 5268 5261 5252 5246 5246 5236 5206 5178 5151 5128 5128 5111 5092 5072 5062 5062 5062 5062 5062 5062 5062 5062 5062 5062 5062 5062 5062 5062 5062 5067 5080 5106 5123 5123 5127 5131 5134 5137 5149 5149 5156 5151 5117 5040 4991 4991 4975 4959 4950 4936 4926 4926 4906 4881 4847 4819 4793 4793 4776 4754 4731 4708 4708 4689 4672 4659 4640 4632 4632 4633 4626 4620 4610 4603 4603 4599 4588 4588 4589 4586 4586 4586 4586 4586 4586 4589 4589 4606 4657 4700 4746 4746 4783 4810 4830 4849 4884 4884 4923 4962 5012 5065 5111 5111 5158 5219 5273 5313 5336 5336 5355 5371 5388 5407 5407 5431 5460 5490 5559 5639 5639 5651 5448 5352 5314 5279 5279 5219 5184 5161 5131 5090 5090 5054 5213 5273 5300 5324 5324 5335 5343 5372 5411 5411 5467 5526 5574 5609 5607 5607 5586 5567 5567 5570 5601 5601 5653 5702 5742 5833 5926 5926 6036 6148 6231 6308 6371 6371 6417 6473 6529 6577 6577 6646 6706 6774 6873 6935 6935 7006 7071 7158 7261 7374 7374 7449 7529 7540 7454 7417 7417 7282 7121 6994 6900 6827 6827 6734 6690 6644 6591 6591 6561 6553 6559 6548 6535 6535 6527 6511 6498 6483 6480 6480 6506 6543 6570 6599 6640 6640 6698 6754 6793 6851 6906 6906 6961 7037 7104 7143 7143 7230 7333 7493 7567 7592 7592 7691 7767 7748 7767 7866 7866 7977 8150 8284 8306 8355 8355 8379 8282 8204 8128 8066 8066 8022 7993 7966 7934 7934 7897 7861 7825 7788 -9999 -9999 -9999
-9999 -9999 -9999 6015 6093 6185 6185 6259 6318 6394 6498 6577 6577 6651 6715 6783 6851 6930 6930 7010 7070 7133 7217 7217 7312 7367 7301 7234 7161 7161 7062 6996 6949 6924 6913 6913 6904 6906 6913 6917 6907 6907 6899 6894 6891 6885 6885 6885 6892 6894 6864 6813 6813 6795 6777 6765 6741 6682 6682 6699 6665 6649 6637 6638 6638 6588 6557 6507 6473 6422 6422 6355 6309 6249 6191 6191 6149 6128 6092 6083 6046 6046 6050 6017 5983 5979 5964 5964 5935 5897 5901 5847 5792 5792 5751 5699 5638 5567 5511 5511 5461 5402 5358 5334 5334 5314 5286 5259 5230 5192 5192 5151 5142 5159 5169 5182 5182 5199 5218 5235 5242 5246 5246 5249 5254 5254 5251 5251 5251 5246 5235 5221 5208 5208 5186 5170 5148 5125 5109 5109 5089 5069 5062 5062 5062 5062 5062 5062 5062 5062 5062 5062 5062 5062 5062 5062 5062 5062 5062 5067 5086 5109 5109 5123 5127 5131 5127 5123 5123 5126 5123 5092 5026 4995 4995 5005 4995 4985 4965 4949 4949 4930 4907 4878 4830 4776 4776 4755 4735 4718 4705 4705 4686 4672 4663 4647 4645 4645 4643 4633 4623 4610 4600 4600 4596 4594 4587 4586 4586 4586 4586 4589 4592 4597 4597 4617 4651 4693 4739 4788 4788 4829 4853 4873 4891 4923 4923 4963 5015 5074 5126 5190 5190 5261 5321 5368 5391 5405 5405 5417 5435 5457 5535 5535 5558 5610 5682 5766 5730 5730 5611 5507 5468 5414 5380 5380 5349 5309 5267 5224 5181 5181 5168 5292 5354 5391 5407 5407 5408 5398 5425 5486 5486 5544 5610 5641 5621 5598 5598 5574 5567 5567 5567 5607 5607 5647 5681 5726 5793 5918 5918 6035 6146 6239 6307 6368 6368 6419 6479 6532 6582 6582 6652 6722 6784 6861 6919 6919 6982 7058 7131 7248 7311 7311 7368 7496 7553 7618 7523 7523 7321 7128 6987 6887 6811 6811 6749 6709 6670 6634 6634 6605 6606 6599 6593 6586 6586 6571 6549 6525 6513 6513 6513 6513 6542 6577 6606 6652 6652 6685 6725 6765 6814 6893 6893 6952 7002 7067 7116 7116 7181 7284 7402 7477 7549 7549 7612 7662 7683 7724 7825 7825 7959 8112 8264 8305 8346 8346 8327 8234 8142 8085 8085 8036 8002 7975 7943 7911 7911 7871 7838 7797 7758 -9999 -9999 -9999
-9999 -9999 -9999 5996 6099 6194 6194 6259 6321 6395 6495 6577 6577 6651 6716 6787 6862 6862 6937 7014 7085 7162 7261 7261 7347 7380 7299 7247 7162 7162 7041 6974 6915 6874 6859 6859 6852 6854 6861 6865 6852 6852 6836 6819 6806 6799 6799 6799 6814 6809 6772 6746 6746 6731 6711 6685 6643 6587 6587 6584 6557 6548 6542 6536 6536 6518 6486 6445 6392 6358 6358 6294 6226 6174 6145 6145 6109 6078 6048 6000 5973 5973 5974 5963 5938 5920 5917 5917 5898 5852 5843 5805 5743 5743 5687 5627 5578 5532 5480 5480 5426 5375 5335 5305 5305 5279 5255 5233 5207 5174 5174 5135 5126 5152 5163 5175 5175 5195 5208 5218 5225 5228 5228 5234 5238 5236 5231 5225 5225 5215 5196 5182 5167 5167 5157 5141 5121 5104 5092 5092 5082 5066 5062 5062 5062 5062 5062 5062 5062 5062 5062 5062 5062 5062 5062 5062 5062 5062 5062 5062 5070 5083 5083 5105 5120 5123 5118 5107 5107 5085 5073 5047 5023 5046 5046 5051 5045 5023 4999 4976 4976 4953 4927 4924 4868 4868 4861 4859 4837 4803 4770 4770 4749 4726 4703 4679 4663 4663 4648 4639 4630 4614 4604 4604 4599 4596 4590 4587 4586 4586 4593 4621 4655 4687 4687 4717 4745 4773 4818 4868 4868 4911 4940 4964 4990 5019 5019 5080 5146 5218 5306 5379 5379 5433 5482 5506 5523 5540 5540 5556 5567 5590 5620 5620 5667 5735 5790 5807 5699 5699 5613 5577 5538 5472 5448 5448 5395 5348 5308 5276 5232 5232 5293 5399 5440 5448 5457 5457 5458 5445 5469 5523 5523 5579 5650 5641 5611 5584 5584 5567 5567 5567 5567 5600 5600 5646 5685 5726 5786 5895 5895 6021 6125 6225 6290 6354 6354 6406 6472 6525 6578 6578 6642 6718 6784 6846 6914 6914 6968 7049 7158 7238 7319 7319 7400 7491 7559 7565 7462 7462 7282 7106 6964 6880 6834 6834 6776 6742 6719 6683 6683 6666 6662 6646 6635 6629 6629 6616 6590 6558 6549 6547 6547 6531 6563 6594 6631 6681 6681 6711 6734 6770 6841 6841 6910 6962 7010 7062 7115 7115 7175 7257 7351 7448 7500 7500 7540 7569 7628 7709 7804 7804 8000 8161 8283 8308 8347 8347 8284 8179 8112 8056 8056 8016 7986 7957 7924 7884 7884 7845 7809 7773 7737 -9999 -9999 -9999
-9999 -9999 -9999 6002 6088 6172 6172 6252 6315 6384 6485 6573 6573 6649 6723 6799 6865 6865 6921 7001 7072 7152 7254 7254 7353 7366 7329 7259 7166 7166 7053 6970 6903 6858 6830 6830 6820 6813 6812 6815 6806 6806 6791 6764 6750 6747 6747 6749 6759 6747 6720 6692 6692 6672 6649 6608 6564 6516 6516 6507 6491 6481 6477 6478 6478 6464 6443 6399 6341 6289 6289 6240 6185 6140 6105 6105 6067 6032 6003 5959 5925 5925 5920 5917 5904 5891 5884 5884 5865 5818 5781 5756 5698 5698 5625 5559 5524 5489 5447 5447 5385 5345 5312 5283 5283 5248 5224 5201 5174 5148 5148 5116 5120 5133 5146 5156 5156 5175 5193 5195 5194 5198 5198 5202 5205 5205 5202 5163 5163 5163 5154 5147 5137 5137 5128 5112 5085 5078 5072 5072 5068 5065 5065 5062 5062 5062 5062 5062 5062 5062 5062 5062 5062 5062 5062 5062 5062 5062 5062 5062 5062 5062 5062 5062 5067 5077 5075 5081 5081 5074 5046 5074 5095 5108 5108 5119 5116 5100 5077 5054 5054 5038 5006 4945 4922 4922 4935 4920 4890 4846 4799 4799 4763 4735 4708 4682 4663 4663 4646 4633 4629 4620 4610 4610 4604 4599 4594 4589 4593 4593 4618 4658 4693 4727 4727 4760 4793 4835 4885 4934 4934 4967 4997 5024 5051 5085 5085 5133 5211 5308 5391 5455 5455 5511 5548 5576 5600 5625 5625 5653 5687 5718 5755 5755 5793 5820 5847 5811 5782 5782 5745 5687 5625 5553 5517 5517 5452 5388 5351 5332 5315 5315 5395 5484 5500 5503 5507 5507 5503 5491 5510 5565 5565 5623 5669 5640 5588 5570 5570 5567 5567 5567 5567 5587 5587 5628 5668 5708 5772 5886 5886 6002 6107 6197 6267 6327 6327 6391 6458 6518 6566 6566 6637 6710 6773 6843 6905 6905 6970 7083 7198 7274 7337 7337 7413 7431 7482 7484 7351 7351 7195 7048 6954 6906 6906 6864 6828 6799 6763 6748 6748 6722 6721 6703 6685 6679 6679 6657 6624 6606 6590 6586 6586 6570 6570 6627 6667 6694 6694 6718 6762 6797 6843 6843 6901 6953 7002 7058 7119 7119 7181 7246 7323 7393 7456 7456 7510 7566 7659 7809 7955 7955 8095 8173 8217 8328 8400 8400 8258 8143 8079 8032 8032 7999 7972 7943 7908 7866 7866 7827 7776 7732 7696 -9999 -9999 -9999
-9999 -9999 -9999 6023 6101 6172 6172 6258 6343 6428 6501 6574 6574 6649 6720 6790 6848 6848 6917 7002 7081 7162 7265 7265 7329 7388 7372 7269 7176 7176 7063 6973 6909 6863 6819 6819 6791 6765 6760 6760 6753 6753 6734 6714 6701 6698 6698 6706 6713 6698 6678 6650 6650 6610 6570 6540 6509 6470 6470 6432 6443 6435 6428 6422 6422 6406 6390 6365 6312 6238 6238 6182 6155 6127 6070 6070 6054 6037 5982 5924 5887 5887 5869 5853 5838 5821 5791 5791 5752 5715 5680 5616 5580 5580 5545 5506 5467 5403 5337 5337 5299 5272 5254 5235 5235 5201 5161 5125 5118 5114 5114 5109 5104 5101 5103 5112 5112 5123 5126 5126 5130 5139 5139 5146 5149 5147 5144 5144 5141 5140 5140 5137 5131 5131 5124 5100 5076 5072 5068 5068 5065 5065 5062 5062 5062 5062 5062 5062 5062 5062 5062 5062 5062 5062 5062 5062 5062 5062 5062 5062 5062 5062 5062 5062 5062 5064 5067 5067 5067 5050 5073 5097 5117 5131 5131 5134 5128 5122 5097 5076 5076 5047 5016 4966 4967 4967 4974 4973 4936 4872 4816 4816 4767 4736 4706 4680 4666 4666 4646 4633 4630 4623 4616 4616 4607 4600 4594 4596 4618 4618 4651 4690 4726 4762 4762 4809 4862 4924 4965 4999 4999 5032 5063 5096 5122 5148 5148 5202 5297 5387 5455 5523 5523 5580 5634 5681 5718 5753 5753 5773 5795 5815 5835 5835 5851 5879 5904 5922 5906 5906 5857 5778 5668 5625 5582 5582 5499 5458 5448 5444 5440 5440 5489 5534 5542 5542 5542 5542 5535 5526 5539 5581 5581 5623 5628 5608 5569 5567 5567 5567 5567 5567 5567 5569 5569 5588 5624 5691 5764 5875 5875 5973 6059 6155 6203 6284 6284 6372 6438 6501 6558 6558 6619 6691 6763 6829 6898 6898 6966 7097 7166 7196 7260 7260 7301 7371 7450 7497 7360 7360 7183 7066 6989 6934 6934 6893 6882 6863 6832 6817 6817 6789 6784 6773 6751 6736 6736 6706 6670 6653 6695 6692 6692 6676 6647 6677 6730 6773 6773 6799 6814 6859 6914 6914 6960 7003 7034 7067 7106 7106 7152 7216 7304 7396 7435 7435 7511 7627 7793 8013 8013 8013 8006 8098 8250 8350 8246 8246 8150 8080 8032 7989 7989 7960 7930 7900 7870 7838 7838 7806 7726 7671 7654 -9999 -9999 -9999
-9999 -9999 -9999 6026 6098 6173 6173 6276 6363 6438 6507 6569 6569 6648 6708 6766 6833 6833 6916 6998 7069 7150 7241 7215 7302 7383 7409 7278 7181 7181 7075 6996 6929 6877 6826 6826 6790 6760 6734 6704 6670 6670 6637 6623 6604 6592 6592 6616 6622 6606 6611 6587 6587 6541 6486 6435 6391 6348 6348 6321 6307 6313 6316 6320 6320 6315 6308 6302 6283 6238 6238 6166 6125 6107 6084 6084 6058 6031 5980 5921 5883 5883 5846 5800 5776 5767 5746 5746 5711 5673 5645 5595 5532 5532 5501 5469 5428 5370 5370 5323 5280 5241 5206 5186 5186 5164 5125 5114 5111 5111 5111 5108 5104 5101 5101 5098 5098 5100 5100 5100 5107 5120 5120 5127 5127 5130 5127 5127 5123 5123 5127 5127 5123 5123 5111 5083 5072 5068 5065 5065 5062 5062 5062 5062 5062 5062 5062 5062 5062 5062 5062 5062 5062 5062 5062 5062 5062 5062 5062 5062 5062 5062 5062 5063 5072 5063 5060 5056 5056 5074 5097 5118 5137 5148 5148 5148 5126 5114 5096 5079 5079 5051 5019 4991 4977 4977 4981 4982 4956 4884 4826 4826 4771 4736 4709 4690 4676 4676 4667 4648 4640 4630 4620 4620 4609 4600 4596 4618 4647 4647 4680 4723 4757 4811 4811 4877 4949 4998 5032 5063 5063 5101 5134 5166 5197 5236 5236 5285 5368 5440 5512 5585 5585 5654 5724 5792 5825 5838 5838 5857 5877 5891 5904 5904 5919 5962 5998 6025 6029 6029 5987 5812 5777 5717 5618 5618 5563 5549 5547 5527 5511 5511 5530 5560 5584 5592 5583 5583 5559 5545 5547 5577 5577 5599 5592 5567 5567 5567 5567 5567 5567 5567 5567 5567 5567 5567 5569 5639 5744 5842 5842 5919 5972 6048 6115 6115 6232 6340 6425 6501 6561 6561 6616 6679 6735 6809 6879 6879 6934 7002 7094 7163 7303 7303 7398 7462 7517 7625 7619 7619 7396 7228 7085 7035 7035 7010 6991 6972 6952 6934 6934 6906 6904 6886 6872 6856 6856 6840 6816 6782 6769 6760 6760 6729 6705 6709 6760 6813 6813 6857 6860 6897 6959 6959 7000 7017 7027 7051 7096 7096 7155 7210 7279 7345 7382 7382 7506 7665 7830 7920 7915 7915 7931 8070 8246 8307 8220 8220 8120 8056 8010 7967 7967 7930 7893 7864 7841 7821 7821 7780 7699 7628 7624 -9999 -9999 -9999
-9999 -9999 -9999 6034 6128 6220 6220 6284 6336 6396 6471 6531 6531 6600 6664 6739 6808 6808 6884 6952 7034 7094 7159 7159 7258 7356 7374 7277 7187 7187 7082 7012 6942 6889 6834 6834 6804 6773 6726 6684 6654 6654 6610 6578 6570 6566 6566 6576 6586 6596 6606 6590 6590 6554 6500 6420 6341 6290 6290 6263 6263 6267 6277 6294 6294 6295 6282 6280 6276 6276 6248 6181 6165 6129 6094 6094 6059 6013 5968 5919 5872 5872 5836 5791 5729 5692 5677 5677 5668 5627 5588 5561 5517 5517 5438 5414 5378 5342 5342 5302 5267 5228 5179 5147 5147 5128 5114 5111 5108 5105 5105 5104 5101 5101 5098 5098 5098 5095 5095 5092 5090 5103 5103 5112 5110 5110 5113 5113 5104 5103 5116 5118 5098 5098 5072 5066 5065 5065 5065 5065 5062 5062 5062 5062 5062 5062 5063 5066 5072 5069 5069 5069 5069 5072 5069 5063 5063 5063 5064 5067 5070 5089 5089 5105 5087 5093 5090 5080 5080 5093 5123 5150 5171 5185 5185 5177 5148 5113 5085 5066 5066 5043 5008 4978 4960 4960 4948 4935 4910 4873 4825 4825 4776 4739 4718 4702 4689 4689 4685 4679 4657 4637 4623 4623 4607 4600 4608 4641 4669 4669 4713 4752 4801 4869 4931 4997 5047 5094 5130 5173 5173 5225 5268 5308 5351 5396 5396 5438 5494 5555 5621 5702 5702 5778 5875 5943 5968 5987 5987 6005 6025 6038 6048 6048 6073 6097 6140 6202 6174 6174 6037 5946 5886 5784 5704 5704 5657 5630 5618 5602 5580 5580 5576 5600 5611 5606 5606 5594 5584 5575 5580 5584 5584 5571 5591 5572 5567 5567 5567 5567 5567 5567 5567 5567 5567 5567 5569 5618 5715 5784 5784 5850 5931 6005 6092 6092 6236 6376 6450 6506 6561 6561 6615 6675 6731 6791 6878 6878 6932 6999 7078 7157 7344 7344 7368 7409 7470 7582 7653 7653 7460 7295 7185 7165 7165 7132 7090 7059 7024 6979 6979 6964 6961 6936 6929 6905 6905 6903 6868 6858 6846 6819 6819 6782 6774 6759 6799 6858 6858 6903 6936 6944 6986 6986 7027 7030 7047 7070 7101 7101 7149 7197 7256 7313 7390 7390 7521 7675 7795 7811 7837 7837 7866 8090 8234 8255 8183 8183 8097 8037 7990 7944 7944 7892 7843 7818 7807 7791 7791 7742 7670 7593 7580 -9999 -9999 -9999
-9999 -9999 -9999 6039 6116 6181 6181 6248 6313 6382 6442 6499 6499 6569 6648 6714 6778 6778 6857 6930 6998 7068 7134 7134 7226 7336 7348 7275 7187 7187 7091 7024 6960 6902 6851 6851 6816 6787 6727 6669 6669 6621 6575 6538 6534 6536 6536 6553 6581 6603 6604 6604 6604 6561 6495 6405 6320 6264 6264 6263 6263 6263 6263 6285 6285 6286 6265 6263 6263 6263 6253 6233 6198 6155 6111 6111 6082 6039 5997 5936 5876 5876 5855 5820 5762 5684 5614 5614 5600 5574 5554 5529 5493 5493 5434 5376 5335 5301 5301 5273 5246 5198 5159 5122 5122 5114 5108 5108 5104 5104 5104 5101 5101 5098 5098 5095 5095 5098 5108 5112 5100 5085 5085 5090 5090 5087 5087 5087 5085 5075 5089 5095 5076 5076 5068 5068 5065 5065 5062 5062 5062 5062 5062 5063 5072 5072 5086 5102 5100 5088 5099 5099 5103 5091 5102 5104 5104 5155 5177 5194 5210 5231 5231 5240 5230 5189 5162 5152 5152 5183 5225 5259 5289 5300 5300 5276 5225 5166 5111 5074 5074 5060 5032 4997 4942 4942 4873 4821 4793 4770 4749 4749 4730 4720 4707 4694 4691 4691 4685 4675 4653 4632 4610 4610 4606 4618 4638 4670 4719 4719 4765 4824 4898 4977 4977 5030 5083 5123 5169 5228 5228 5274 5323 5366 5410 5455 5455 5501 5560 5619 5685 5764 5764 5847 5939 6002 6040 6040 6073 6091 6107 6111 6120 6120 6146 6216 6299 6312 6190 6190 6062 5969 5888 5797 5753 5753 5743 5702 5662 5633 5605 5605 5590 5593 5597 5597 5597 5597 5600 5591 5596 5605 5605 5595 5601 5580 5567 5567 5567 5567 5567 5567 5567 5567 5567 5567 5567 5593 5676 5725 5725 5797 5896 5953 6103 6103 6266 6389 6453 6498 6554 6554 6593 6638 6697 6766 6854 6854 6917 6982 7063 7152 7276 7276 7298 7350 7420 7527 7621 7621 7550 7357 7321 7324 7324 7290 7285 7222 7151 7066 7066 7064 7029 7006 6991 6971 6971 6962 6936 6928 6910 6870 6870 6850 6841 6824 6837 6904 6904 6954 6989 7013 7010 7010 7046 7048 7069 7095 7125 7125 7161 7193 7250 7316 7386 7386 7505 7615 7688 7748 7805 7805 7829 8071 8232 8196 8138 8138 8077 8024 7975 7925 7925 7863 7813 7777 7771 7755 7755 7712 7641 7570 7548 -9999 -9999 -9999
-9999 -9999 -9999 5999 6080 6157 6157 6235 6297 6353 6415 6415 6477 6561 6632 6688 6760 6760 6841 6910 6960 7054 7125 7125 7200 7293 7318 7270 7191 7191 7094 7027 6966 6909 6860 6860 6816 6783 6718 6650 6650 6574 6522 6487 6487 6500 6500 6524 6547 6558 6561 6547 6547 6507 6442 6366 6285 6263 6263 6263 6263 6263 6263 6274 6274 6282 6276 6263 6264 6264 6285 6290 6246 6178 6138 6138 6099 6056 6003 5942 5905 5905 5868 5830 5766 5703 5636 5636 5558 5544 5532 5506 5471 5471 5419 5369 5326 5283 5283 5233 5201 5174 5122 5112 5112 5108 5104 5104 5101 5101 5101 5099 5098 5098 5098 5108 5108 5124 5150 5158 5146 5122 5122 5093 5078 5078 5075 5075 5075 5073 5072 5072 5072 5072 5075 5076 5075 5075 5075 5075 5084 5079 5111 5157 5171 5171 5178 5182 5179 5163 5174 5174 5182 5176 5178 5195 5195 5204 5230 5247 5260 5276 5276 5286 5274 5237 5192 5194 5194 5238 5275 5320 5348 5354 5354 5320 5274 5219 5163 5112 5112 5082 5058 5019 4955 4955 4873 4813 4765 4741 4717 4717 4707 4694 4685 4680 4684 4684 4678 4663 4636 4613 4606 4606 4616 4628 4647 4692 4692 4742 4797 4859 4937 5004 5004 5056 5107 5156 5214 5263 5263 5322 5366 5418 5471 5518 5518 5570 5626 5684 5753 5829 5829 5926 6005 6052 6094 6094 6135 6176 6200 6216 6237 6237 6298 6384 6364 6282 6161 6161 6069 5990 5918 5857 5864 5864 5830 5772 5719 5674 5622 5622 5594 5590 5626 5607 5607 5597 5600 5597 5597 5624 5624 5641 5615 5582 5567 5567 5567 5567 5567 5567 5567 5567 5567 5567 5567 5575 5627 5702 5702 5790 5854 5950 6138 6138 6246 6361 6435 6473 6508 6508 6540 6576 6661 6734 6807 6807 6881 6950 7027 7119 7188 7188 7258 7319 7438 7493 7589 7589 7612 7543 7466 7454 7454 7440 7421 7360 7280 7257 7257 7163 7091 7083 7045 7059 7059 7036 7011 6998 6964 6934 6934 6936 6927 6914 6899 6957 6957 7004 7050 7054 7038 7038 7059 7072 7086 7117 7143 7143 7167 7201 7256 7312 7365 7365 7444 7587 7672 7726 7808 7808 7913 8082 8170 8129 8037 8037 8008 7978 7938 7886 7886 7830 7781 7734 7685 7665 7665 7645 7594 7539 7513 -9999 -9999 -9999
-9999 -9999 -9999 6015 6091 6159 6159 6234 6279 6341 6388 6388 6463 6527 6597 6668 6741 6741 6824 6891 6944 7033 7123 7123 7218 7293 7297 7255 7186 7186 7088 7026 6977 6910 6851 6851 6789 6746 6688 6617 6617 6535 6460 6442 6447 6457 6457 6454 6460 6470 6411 6417 6417 6389 6340 6295 6263 6263 6263 6263 6263 6263 6266 6267 6267 6263 6269 6285 6308 6308 6327 6326 6295 6226 6167 6167 6122 6072 6036 5987 5938 5938 5895 5851 5812 5739 5660 5660 5571 5487 5481 5457 5416 5416 5350 5306 5270 5233 5233 5201 5172 5143 5118 5108 5108 5104 5104 5104 5104 5104 5104 5101 5101 5104 5108 5121 5121 5153 5180 5196 5171 5133 5133 5103 5090 5080 5078 5078 5076 5078 5079 5078 5078 5078 5083 5096 5100 5097 5121 5121 5145 5159 5187 5204 5220 5220 5233 5244 5240 5213 5213 5230 5242 5232 5234 5261 5261 5267 5283 5299 5308 5321 5321 5326 5320 5284 5240 5252 5252 5288 5330 5374 5407 5422 5422 5390 5320 5279 5224 5224 5170 5142 5103 5038 4959 4959 4885 4820 4760 4736 4713 4713 4693 4676 4671 4667 4664 4664 4658 4639 4617 4609 4615 4615 4622 4635 4667 4715 4715 4761 4823 4895 4963 5027 5027 5083 5132 5190 5247 5296 5296 5352 5414 5476 5533 5586 5586 5645 5698 5761 5836 5919 5919 6002 6052 6101 6152 6152 6217 6272 6296 6324 6356 6356 6395 6430 6321 6198 6124 6124 6055 6013 5982 5960 5950 5950 5937 5843 5768 5722 5642 5642 5602 5596 5614 5594 5594 5593 5597 5593 5596 5605 5605 5593 5580 5567 5567 5567 5567 5567 5567 5567 5567 5567 5567 5567 5567 5567 5587 5660 5660 5738 5820 5944 6132 6132 6160 6281 6391 6430 6446 6446 6488 6544 6610 6691 6780 6780 6878 6966 7038 7114 7182 7182 7258 7325 7395 7493 7585 7585 7695 7758 7743 7637 7637 7602 7654 7593 7540 7435 7435 7340 7275 7233 7216 7258 7258 7257 7204 7249 7236 7242 7242 7267 7229 7119 7043 7075 7075 7089 7089 7072 7070 7070 7086 7115 7118 7132 7144 7144 7161 7211 7252 7300 7355 7355 7420 7526 7629 7743 7855 7855 7954 8059 8075 8022 8022 7982 7951 7928 7910 7872 7872 7823 7778 7732 7687 7644 7644 7600 7568 7524 7509 -9999 -9999 -9999
-9999 -9999 -9999 5992 6057 6110 6110 6174 6243 6301 6342 6342 6409 6480 6562 6645 6714 6714 6797 6878 6938 7018 7087 7087 7171 7253 7284 7234 7167 7167 7088 7052 7023 6966 6875 6875 6776 6678 6582 6515 6515 6449 6393 6365 6353 6357 6357 6354 6350 6353 6362 6367 6367 6355 6314 6277 6264 6272 6272 6264 6273 6276 6276 6279 6279 6280 6287 6301 6322 6322 6325 6325 6298 6237 6171 6171 6124 6071 6028 5973 5930 5930 5881 5835 5799 5719 5619 5619 5536 5468 5448 5437 5389 5389 5317 5277 5237 5204 5204 5177 5155 5122 5111 5108 5108 5104 5104 5107 5108 5108 5108 5108 5111 5114 5122 5153 5153 5183 5206 5213 5193 5193 5144 5119 5119 5110 5094 5094 5080 5088 5101 5100 5102 5102 5118 5132 5138 5144 5176 5176 5203 5227 5243 5253 5266 5266 5283 5296 5298 5274 5274 5296 5313 5317 5317 5333 5333 5337 5339 5352 5359 5362 5362 5371 5363 5345 5313 5302 5302 5337 5379 5439 5489 5498 5498 5462 5385 5334 5274 5274 5230 5213 5178 5103 4973 4973 4890 4818 4773 4746 4722 4722 4699 4676 4665 4655 4645 4645 4639 4623 4612 4615 4622 4622 4631 4651 4695 4742 4742 4794 4851 4918 4986 5047 5047 5101 5155 5213 5266 5327 5327 5387 5453 5518 5581 5650 5650 5720 5790 5872 5954 6008 6008 6058 6114 6168 6235 6235 6295 6336 6384 6422 6445 6445 6446 6402 6187 6130 6075 6075 6038 6033 6030 6042 6043 6043 6031 6008 5949 5839 5782 5782 5696 5643 5617 5622 5622 5625 5606 5597 5594 5585 5585 5571 5567 5567 5567 5567 5567 5567 5567 5567 5567 5567 5567 5567 5567 5567 5567 5588 5588 5673 5748 5834 5918 5918 6048 6199 6284 6331 6380 6380 6435 6511 6586 6683 6765 6765 6862 6946 6994 7071 7172 7172 7245 7282 7336 7415 7569 7569 7642 7605 7606 7600 7600 7711 7784 7711 7610 7496 7496 7433 7352 7314 7299 7343 7343 7326 7323 7407 7411 7380 7380 7344 7246 7141 7120 7120 7122 7108 7090 7077 7083 7083 7099 7138 7135 7139 7154 7154 7189 7248 7285 7308 7352 7352 7408 7510 7645 7746 7846 7846 7976 8053 8032 7979 7979 7930 7886 7866 7858 7844 7844 7819 7788 7749 7703 7661 7661 7612 7568 7521 7509 -9999 -9999 -9999
-9999 -9999 -9999 5952 6025 6086 6086 6156 6212 6277 6324 6324 6385 6451 6533 6621 6698 6698 6788 6867 6920 6991 7060 7060 7126 7214 7283 7251 7176 7176 7101 7062 7032 6971 6877 6877 6792 6707 6591 6508 6508 6434 6377 6348 6326 6321 6321 6324 6324 6324 6333 6340 6340 6333 6304 6277 6279 6282 6282 6279 6286 6283 6282 6289 6289 6292 6301 6314 6324 6324 6314 6314 6297 6239 6170 6170 6111 6057 6003 5954 5900 5900 5855 5815 5763 5687 5601 5601 5525 5460 5388 5385 5385 5343 5293 5250 5208 5174 5174 5148 5122 5111 5108 5108 5108 5107 5108 5108 5111 5111 5111 5114 5114 5125 5157 5185 5185 5212 5226 5229 5203 5203 5156 5142 5142 5138 5126 5126 5112 5124 5132 5136 5135 5135 5154 5174 5183 5178 5222 5222 5253 5269 5286 5306 5322 5322 5338 5352 5357 5333 5333 5354 5382 5403 5410 5410 5410 5411 5407 5406 5412 5418 5418 5422 5414 5397 5377 5363 5363 5392 5454 5537 5582 5577 5577 5531 5468 5395 5334 5334 5300 5288 5255 5190 5020 5020 4921 4896 4833 4779 4736 4736 4700 4676 4659 4643 4632 4632 4622 4616 4619 4624 4631 4631 4648 4689 4735 4781 4781 4845 4918 4980 5037 5090 5090 5144 5204 5250 5296 5353 5353 5417 5496 5580 5658 5747 5747 5860 5992 6035 6089 6150 6150 6211 6285 6352 6422 6422 6476 6513 6525 6481 6431 6431 6378 6270 6161 6117 6081 6081 6068 6055 6050 6056 6041 6041 6025 5998 5969 5919 5855 5855 5813 5763 5721 5698 5698 5671 5647 5619 5606 5585 5585 5570 5567 5567 5567 5567 5567 5567 5567 5567 5567 5567 5567 5567 5567 5567 5567 5575 5575 5624 5703 5772 5898 5898 6030 6167 6251 6301 6351 6351 6422 6514 6584 6671 6754 6754 6818 6864 6920 6996 7102 7102 7179 7218 7277 7335 7335 7404 7495 7503 7544 7567 7567 7717 7838 7826 7687 7561 7561 7488 7447 7411 7407 7441 7441 7410 7417 7511 7521 7397 7397 7304 7226 7166 7149 7149 7123 7107 7094 7097 7103 7103 7121 7145 7149 7148 7161 7161 7211 7277 7308 7331 7360 7360 7418 7538 7683 7806 7908 7908 8002 8081 7998 7938 7938 7882 7835 7819 7813 7809 7809 7800 7785 7766 7738 7700 7700 7653 7582 7522 7507 -9999 -9999 -9999
-9999 -9999 -9999 5924 5987 6050 6050 6122 6183 6250 6296 6296 6344 6416 6508 6602 6684 6684 6754 6826 6884 6942 6996 6996 7098 7184 7275 7275 7197 7197 7130 7062 7028 6992 6916 6916 6855 6768 6621 6519 6519 6437 6381 6341 6313 6309 6309 6309 6309 6309 6311 6321 6321 6325 6311 6291 6296 6300 6300 6300 6299 6296 6296 6296 6296 6298 6302 6314 6309 6309 6277 6290 6313 6226 6161 6161 6105 6058 6006 5952 5895 5895 5842 5786 5697 5621 5568 5568 5500 5431 5363 5318 5318 5301 5266 5227 5185 5155 5155 5125 5114 5111 5108 5108 5108 5108 5108 5111 5114 5114 5114 5119 5137 5164 5189 5215 5215 5233 5246 5253 5219 5219 5173 5159 5164 5168 5162 5162 5149 5154 5170 5235 5249 5249 5254 5311 5334 5341 5376 5376 5408 5430 5438 5430 5471 5471 5522 5550 5567 5545 5545 5526 5579 5617 5641 5655 5655 5662 5663 5634 5585 5564 5564 5547 5544 5533 5519 5521 5521 5560 5612 5661 5702 5749 5749 5823 5642 5525 5479 5479 5469 5445 5396 5326 5213 5213 5033 4923 4851 4784 4730 4730 4695 4672 4653 4639 4626 4626 4619 4619 4625 4629 4635 4635 4660 4705 4748 4796 4796 4863 4941 5003 5059 5116 5116 5174 5231 5280 5335 5398 5398 5450 5524 5610 5688 5779 5779 5897 6018 6082 6156 6228 6228 6301 6369 6439 6512 6512 6561 6568 6499 6441 6386 6386 6315 6223 6166 6141 6124 6124 6105 6085 6078 6077 6060 6060 6036 6012 5966 5924 5924 5869 5803 5763 5742 5713 5713 5684 5651 5628 5598 5581 5581 5567 5567 5567 5567 5567 5567 5567 5567 5567 5567 5567 5567 5567 5567 5567 5567 5567 5569 5619 5691 5764 5864 5864 5970 6075 6198 6267 6347 6347 6419 6509 6583 6658 6719 6719 6752 6802 6877 6949 7014 7014 7079 7147 7209 7256 7256 7303 7348 7397 7495 7563 7563 7672 7839 7928 7733 7584 7584 7567 7588 7604 7595 7573 7573 7534 7495 7536 7567 7432 7432 7326 7245 7194 7154 7154 7117 7104 7102 7108 7122 7122 7168 7180 7171 7156 7176 7176 7234 7294 7328 7352 7377 7377 7434 7579 7702 7806 7886 7886 8016 8036 7968 7911 7911 7853 7813 7778 7773 7767 7767 7752 7757 7754 7733 7701 7701 7650 7582 7518 7506 -9999 -9999 -9999
-9999 -9999 -9999 5909 5954 5954 6021 6084 6155 6216 6271 6271 6323 6394 6466 6557 6653 6653 6711 6767 6831 6895 7015 7015 7148 7227 7286 7315 7236 7236 7154 7067 7010 6989 6989 6942 6884 6823 6644 6525 6525 6438 6383 6347 6320 6310 6310 6305 6305 6305 6305 6309 6309 6312 6310 6309 6319 6323 6323 6320 6312 6309 6309 6309 6305 6300 6299 6294 6282 6282 6275 6287 6312 6217 6154 6154 6108 6050 6000 5942 5876 5876 5816 5748 5666 5574 5500 5500 5431 5366 5307 5246 5246 5206 5195 5177 5150 5125 5125 5114 5111 5111 5111 5111 5111 5111 5111 5114 5121 5140 5140 5166 5192 5216 5242 5269 5269 5291 5312 5320 5305 5305 5285 5257 5234 5257 5264 5264 5247 5227 5276 5315 5335 5335 5343 5393 5426 5438 5490 5490 5523 5553 5568 5572 5578 5578 5622 5649 5677 5664 5664 5645 5689 5744 5781 5796 5796 5815 5817 5781 5694 5620 5620 5603 5609 5604 5600 5605 5605 5624 5662 5710 5756 5810 5810 5934 5755 5579 5554 5554 5538 5515 5473 5387 5254 5254 5084 4944 4867 4787 4727 4727 4690 4666 4648 4635 4622 4622 4619 4625 4629 4635 4645 4645 4674 4719 4758 4813 4813 4881 4959 5020 5082 5132 5132 5196 5253 5306 5368 5431 5431 5495 5570 5631 5710 5799 5799 5921 6033 6118 6203 6203 6289 6365 6431 6510 6586 6586 6609 6546 6474 6421 6359 6359 6303 6254 6221 6201 6176 6176 6151 6128 6123 6111 6098 6098 6081 6036 5994 5923 5923 5853 5790 5757 5740 5699 5699 5672 5653 5638 5604 5580 5580 5568 5567 5567 5567 5567 5567 5567 5567 5567 5567 5567 5567 5567 5567 5567 5567 5567 5569 5602 5669 5722 5807 5807 5912 6093 6257 6350 6388 6388 6412 6499 6566 6626 6669 6669 6721 6793 6862 6925 6955 6955 7017 7095 7147 7173 7173 7212 7333 7440 7548 7689 7689 7769 7859 7937 7754 7697 7697 7771 7778 7755 7779 7748 7748 7673 7584 7525 7466 7386 7386 7337 7251 7183 7127 7127 7106 7099 7099 7150 7238 7238 7287 7279 7260 7273 7314 7314 7334 7361 7397 7438 7540 7540 7619 7659 7719 7751 7837 7837 8024 7978 7886 7832 7832 7796 7763 7733 7686 7647 7647 7648 7647 7655 7637 7605 7605 7573 7543 7514 7509 -9999 -9999 -9999
-9999 -9999 -9999 5905 5951 5951 6012 6065 6117 6176 6238 6238 6294 6346 6427 6517 6602 6602 6651 6708 6802 6903 7008 7008 7108 7191 7223 7328 7338 7338 7229 7127 6995 6923 6923 6883 6844 6781 6654 6547 6547 6464 6414 6380 6354 6328 6328 6310 6305 6305 6305 6305 6305 6322 6348 6368 6372 6363 6363 6355 6339 6322 6318 6318 6309 6296 6287 6277 6272 6272 6273 6292 6278 6211 6151 6151 6096 6042 5987 5931 5863 5863 5787 5718 5639 5541 5443 5443 5378 5332 5290 5238 5238 5192 5163 5144 5125 5114 5114 5111 5111 5111 5111 5111 5111 5114 5114 5117 5126 5155 5155 5188 5215 5242 5278 5308 5308 5334 5361 5377 5379 5379 5363 5337 5305 5310 5316 5316 5312 5295 5340 5399 5437 5437 5453 5496 5517 5535 5593 5593 5635 5668 5695 5700 5700 5700 5744 5755 5766 5761 5761 5781 5821 5891 5932 5964 5964 5972 5964 5878 5785 5718 5718 5722 5723 5702 5692 5698 5698 5698 5728 5779 5867 6020 6020 5976 5796 5654 5613 5613 5583 5524 5461 5379 5240 5240 5067 4945 4866 4787 4727 4727 4683 4659 4643 4629 4622 4622 4625 4629 4635 4645 4645 4661 4689 4732 4777 4824 4824 4900 4976 5036 5098 5148 5148 5213 5270 5328 5394 5463 5463 5532 5606 5660 5734 5822 5822 5929 6044 6127 6221 6221 6328 6412 6487 6568 6644 6644 6638 6554 6497 6444 6396 6396 6342 6300 6269 6252 6240 6240 6215 6175 6169 6164 6140 6140 6116 6081 6019 5931 5931 5838 5780 5743 5710 5674 5674 5650 5633 5622 5600 5581 5581 5567 5567 5567 5567 5567 5567 5567 5567 5567 5567 5567 5567 5567 5567 5567 5567 5567 5567 5594 5661 5724 5793 5793 5923 6057 6203 6442 6606 6606 6610 6593 6617 6648 6653 6653 6721 6796 6837 6876 6909 6909 6944 6999 7084 7164 7164 7277 7410 7566 7827 7998 7998 8132 8076 8019 7905 7893 7893 7886 7811 7766 7712 7656 7656 7565 7436 7360 7310 7263 7263 7223 7184 7140 7113 7113 7100 7099 7108 7196 7307 7307 7342 7323 7301 7338 7385 7385 7388 7401 7447 7528 7605 7605 7645 7684 7730 7776 7959 7959 8098 7958 7848 7789 7789 7766 7740 7704 7668 7638 7638 7627 7624 7624 7618 7602 7602 7582 7548 7521 7519 -9999 -9999 -9999
-9999 -9999 -9999 5885 5934 5934 5989 6028 6060 6116 6188 6188 6251 6301 6350 6412 6493 6493 6584 6651 6718 6809 6879 6879 6943 7082 7231 7300 7343 7343 7271 7170 7037 6935 6935 6867 6794 6731 6647 6563 6563 6500 6450 6414 6381 6347 6347 6320 6312 6306 6305 6311 6311 6349 6380 6397 6395 6393 6393 6373 6328 6298 6298 6298 6294 6289 6286 6280 6272 6272 6287 6325 6266 6190 6137 6137 6082 6027 5967 5901 5835 5835 5751 5674 5596 5506 5413 5413 5350 5300 5263 5219 5219 5182 5149 5119 5114 5114 5114 5111 5111 5111 5111 5114 5114 5114 5114 5118 5136 5175 5175 5215 5249 5290 5323 5360 5360 5416 5472 5498 5509 5509 5495 5444 5375 5372 5390 5390 5385 5375 5411 5475 5529 5529 5570 5600 5623 5639 5691 5691 5748 5795 5824 5810 5810 5817 5846 5840 5850 5875 5875 5907 5955 6014 6079 6128 6128 6145 6082 5965 5918 5863 5863 5877 5821 5784 5781 5772 5772 5777 5811 5941 6060 6060 6045 5919 5787 5690 5636 5636 5567 5474 5393 5292 5156 5156 5012 4921 4858 4790 4731 4731 4683 4656 4636 4625 4625 4625 4629 4635 4644 4658 4658 4674 4702 4745 4794 4843 4843 4913 4989 5050 5107 5164 5164 5229 5288 5351 5461 5541 5541 5613 5670 5728 5799 5879 5879 5945 6036 6123 6209 6209 6320 6401 6518 6598 6678 6678 6714 6681 6614 6542 6508 6508 6466 6432 6408 6375 6381 6381 6351 6349 6370 6365 6354 6354 6325 6246 6123 6002 6002 5898 5828 5765 5718 5682 5682 5653 5627 5604 5584 5568 5568 5567 5567 5567 5567 5567 5567 5567 5567 5567 5567 5567 5567 5567 5567 5567 5567 5567 5569 5591 5658 5715 5782 5782 5911 6056 6218 6471 6633 6633 6698 6696 6691 6710 6727 6727 6751 6781 6813 6850 6903 6903 6963 7024 7106 7196 7196 7313 7442 7678 7980 8175 8175 8186 8102 8013 7942 7871 7871 7791 7724 7668 7611 7545 7545 7462 7378 7317 7262 7206 7206 7157 7132 7112 7100 7100 7099 7100 7156 7244 7359 7359 7392 7382 7355 7392 7444 7444 7447 7442 7497 7562 7619 7619 7656 7697 7738 7823 8068 8068 8085 7937 7823 7768 7768 7736 7709 7670 7638 7634 7634 7628 7624 7622 7615 7609 7609 7602 7562 7530 7523 -9999 -9999 -9999
-9999 -9999 -9999 5868 5915 5915 5966 6014 6047 6088 6162 6162 6232 6279 6325 6391 6463 6463 6543 6608 6672 6735 6839 6839 6946 7065 7221 7212 7285 7285 7325 7221 7094 6960 6960 6868 6778 6716 6655 6586 6586 6532 6490 6447 6408 6374 6374 6341 6320 6310 6306 6305 6305 6343 6378 6403 6409 6397 6397 6345 6287 6246 6273 6273 6274 6278 6278 6275 6256 6256 6278 6304 6240 6165 6105 6105 6063 6025 5959 5871 5784 5784 5698 5618 5550 5479 5403 5403 5345 5288 5251 5216 5216 5179 5143 5119 5114 5114 5114 5114 5111 5114 5114 5114 5114 5114 5118 5124 5153 5210 5210 5257 5297 5330 5380 5380 5461 5540 5591 5618 5623 5623 5605 5546 5481 5484 5494 5494 5499 5502 5516 5559 5615 5615 5673 5716 5745 5765 5773 5773 5842 5897 5932 5927 5927 5914 5944 5928 5944 6000 6000 6043 6081 6147 6237 6276 6276 6274 6181 6071 6175 6149 6149 6089 5996 6070 6005 5965 5965 5961 6014 5981 5873 5873 5781 5725 5665 5613 5535 5535 5407 5333 5234 5151 5069 5069 4983 4911 4854 4799 4743 4743 4688 4644 4629 4634 4642 4642 4648 4658 4671 4690 4690 4710 4733 4768 4823 4882 4882 4947 5013 5072 5127 5189 5189 5259 5328 5409 5500 5571 5571 5636 5690 5745 5818 5889 5889 5951 6025 6113 6191 6191 6292 6379 6468 6557 6639 6639 6695 6710 6685 6611 6624 6624 6598 6564 6507 6448 6471 6471 6457 6423 6478 6495 6485 6485 6412 6300 6158 6024 6024 5931 5848 5780 5741 5699 5699 5659 5628 5601 5581 5568 5568 5567 5567 5567 5567 5567 5567 5567 5567 5567 5567 5567 5567 5567 5567 5567 5567 5567 5567 5588 5648 5715 5788 5788 5912 6050 6232 6454 6641 6641 6744 6766 6750 6762 6782 6782 6804 6849 6865 6881 6931 6931 6982 7055 7131 7223 7223 7339 7482 7709 8038 8195 8195 8116 8077 7971 7870 7788 7788 7716 7643 7589 7513 7425 7425 7365 7319 7261 7205 7159 7159 7123 7109 7106 7100 7100 7099 7137 7210 7330 7407 7407 7428 7419 7402 7457 7508 7508 7525 7526 7545 7593 7630 7630 7665 7705 7747 7856 7856 8192 8078 7938 7823 7772 7772 7720 7686 7669 7652 7644 7644 7635 7631 7635 7620 7598 7598 7591 7553 7517 7512 -9999 -9999 -9999
-9999 -9999 -9999 5862 5913 5913 5964 6014 6054 6097 6169 6169 6232 6276 6315 6357 6418 6418 6477 6530 6604 6695 6806 6806 6893 6990 7066 7061 7243 7243 7367 7287 7142 6995 6995 6877 6778 6723 6679 6630 6630 6566 6516 6473 6433 6393 6393 6356 6330 6316 6310 6305 6305 6311 6350 6378 6375 6375 6339 6290 6235 6205 6214 6214 6217 6236 6241 6231 6222 6222 6243 6244 6209 6144 6072 6072 6033 6003 5947 5870 5768 5768 5648 5570 5511 5452 5452 5389 5334 5278 5243 5206 5206 5162 5128 5114 5114 5114 5114 5114 5114 5114 5114 5114 5114 5118 5139 5181 5237 5287 5287 5330 5397 5471 5549 5549 5627 5686 5738 5771 5808 5808 5775 5685 5657 5697 5737 5737 5761 5766 5760 5751 5794 5794 5838 5883 5938 5997 6030 6030 6040 6100 6162 6189 6189 6170 6219 6216 6221 6243 6243 6296 6353 6426 6514 6513 6513 6420 6338 6323 6241 6169 6169 6102 6022 5996 5966 5925 5925 5856 5832 5797 5743 5743 5674 5633 5589 5516 5443 5443 5359 5294 5219 5141 5060 5060 4990 4910 4840 4789 4736 4736 4687 4636 4632 4642 4652 4652 4662 4671 4687 4707 4707 4726 4746 4783 4836 4898 4898 4966 5026 5083 5135 5205 5205 5281 5356 5442 5524 5589 5589 5646 5699 5754 5821 5889 5889 5947 6018 6098 6171 6171 6250 6347 6435 6523 6605 6605 6672 6730 6766 6745 6739 6739 6698 6681 6617 6568 6559 6559 6580 6522 6569 6606 6571 6571 6390 6258 6141 6021 6021 5938 5867 5804 5760 5712 5712 5661 5622 5594 5575 5567 5567 5567 5567 5567 5567 5567 5567 5567 5567 5567 5567 5567 5567 5567 5567 5567 5567 5567 5567 5586 5651 5731 5822 5822 5942 6098 6260 6431 6626 6626 6814 6798 6801 6829 6874 6874 6912 6941 6957 6970 6985 6985 7011 7073 7149 7264 7264 7372 7543 7778 8015 8084 8084 8046 7972 7849 7763 7687 7687 7608 7550 7482 7418 7346 7346 7287 7234 7182 7153 7153 7127 7112 7113 7109 7103 7103 7115 7188 7288 7395 7443 7443 7461 7456 7471 7538 7576 7576 7592 7606 7609 7621 7646 7646 7682 7724 7761 7970 7970 8158 8050 7943 7847 7791 7791 7755 7726 7699 7682 7698 7698 7715 7716 7683 7621 7568 7568 7532 7522 7486 7472 -9999 -9999 -9999
-9999 -9999 -9999 5866 5913 5913 5967 6021 6073 6117 6164 6164 6229 6261 6298 6338 6382 6382 6445 6513 6586 6668 6737 6737 6830 6921 6935 6970 6970 7226 7388 7368 7187 7046 7046 6916 6795 6749 6706 6667 6667 6600 6542 6493 6453 6410 6410 6371 6348 6330 6319 6310 6310 6303 6292 6285 6266 6266 6227 6182 6148 6113 6093 6093 6093 6119 6126 6117 6122 6122 6125 6120 6103 6060 6006 6006 5947 5875 5820 5768 5684 5684 5594 5522 5459 5402 5402 5333 5279 5243 5214 5178 5178 5137 5118 5118 5118 5114 5114 5114 5114 5114 5114 5117 5117 5121 5149 5203 5274 5317 5317 5378 5459 5539 5621 5621 5701 5769 5804 5855 5865 5865 5814 5763 5762 5800 5854 5854 5887 5908 5887 5856 5879 5879 5919 5962 6005 6083 6151 6151 6191 6207 6272 6313 6313 6289 6335 6324 6327 6352 6352 6404 6478 6547 6575 6514 6514 6445 6357 6259 6154 6108 6108 6024 5962 5926 5892 5840 5840 5777 5727 5679 5623 5623 5582 5538 5485 5415 5352 5352 5311 5257 5193 5108 5032 5032 4963 4894 4828 4773 4723 4723 4674 4633 4638 4648 4662 4662 4671 4684 4700 4720 4720 4737 4753 4797 4852 4921 4921 4980 5041 5096 5148 5222 5222 5301 5376 5455 5527 5586 5586 5645 5701 5757 5816 5881 5881 5934 5998 6076 6167 6167 6246 6342 6439 6514 6568 6568 6648 6729 6790 6854 6824 6824 6801 6812 6755 6654 6666 6666 6643 6582 6635 6682 6562 6562 6364 6230 6143 6058 6058 5972 5885 5828 5794 5723 5723 5655 5607 5584 5568 5567 5567 5567 5567 5567 5567 5567 5567 5567 5567 5567 5567 5567 5567 5567 5567 5567 5567 5567 5567 5588 5654 5743 5860 5860 5967 6155 6321 6458 6633 6633 6782 6735 6787 6891 6959 6959 6999 7009 7013 7018 7045 7144 7204 7228 7263 7340 7340 7459 7678 7830 7830 7874 7874 8019 8008 7890 7760 7624 7624 7523 7434 7377 7345 7306 7306 7263 7221 7178 7154 7154 7152 7159 7150 7137 7136 7136 7164 7243 7356 7416 7457 7457 7491 7530 7580 7620 7653 7653 7673 7690 7697 7702 7710 7710 7726 7749 7783 8055 8055 8153 8062 7990 7912 7865 7865 7812 7768 7730 7747 7772 7772 7787 7776 7729 7651 7579 7579 7520 7484 7473 7448 -9999 -9999 -9999
-9999 -9999 -9999 5890 5941 5941 5988 6031 6095 6156 6188 6188 6217 6240 6257 6276 6308 6308 6347 6422 6498 6574 6628 6628 6695 6781 6862 6955 6955 7169 7390 7450 7321 7172 7172 7056 6945 6836 6792 6748 6748 6682 6611 6554 6502 6463 6463 6439 6394 6361 6343 6323 6323 6310 6290 6274 6254 6254 6229 6178 6125 6092 6064 6064 6057 6074 6077 6068 6060 6060 6060 6048 6031 6007 5975 5975 5921 5843 5765 5716 5649 5649 5561 5491 5436 5370 5370 5304 5257 5221 5186 5156 5156 5124 5118 5118 5118 5118 5118 5114 5114 5114 5114 5118 5118 5130 5168 5223 5295 5351 5351 5430 5512 5600 5707 5707 5780 5836 5875 5908 5914 5914 5874 5851 5862 5891 5935 5935 5994 6039 6006 5951 5969 5969 5996 6061 6116 6166 6251 6251 6307 6345 6393 6446 6446 6423 6469 6424 6428 6488 6488 6524 6586 6593 6512 6460 6460 6371 6268 6152 6081 6020 6020 5957 5925 5893 5839 5773 5773 5718 5663 5614 5556 5556 5506 5450 5392 5338 5291 5291 5247 5203 5159 5080 5000 5000 4937 4875 4816 4763 4709 4709 4658 4635 4644 4658 4671 4671 4685 4701 4720 4734 4734 4750 4775 4821 4875 4937 4937 4997 5065 5119 5177 5249 5249 5318 5384 5458 5528 5580 5580 5639 5694 5745 5800 5871 5871 5937 6007 6096 6179 6179 6255 6339 6414 6477 6534 6534 6606 6683 6760 6854 6874 6874 6885 6892 6778 6738 6815 6869 6770 6696 6690 6627 6627 6545 6473 6329 6205 6093 6093 6027 5983 5904 5821 5735 5735 5657 5595 5575 5567 5567 5567 5567 5567 5567 5567 5567 5567 5567 5567 5567 5567 5567 5567 5567 5567 5567 5567 5567 5569 5586 5653 5748 5865 5865 5979 6155 6375 6567 6528 6528 6508 6596 6699 6760 6789 6789 6844 6911 7020 7138 7138 7225 7270 7297 7326 7367 7367 7496 7641 7730 7762 7829 7829 8007 8122 7943 7768 7661 7661 7555 7472 7400 7365 7332 7332 7290 7247 7201 7181 7181 7182 7183 7177 7164 7168 7168 7215 7270 7321 7385 7444 7444 7500 7550 7601 7639 7673 7673 7703 7724 7737 7744 7753 7753 7766 7779 7849 8074 8074 8314 8134 8018 7953 7898 7898 7839 7792 7785 7809 7847 7847 7896 7865 7788 7709 7608 7608 7543 7486 7444 7427 -9999 -9999 -9999
-9999 -9999 -9999 5899 5948 5948 5992 6049 6114 6166 6186 6186 6205 6225 6238 6254 6279 6279 6328 6392 6453 6517 6597 6597 6693 6798 6875 6975 6975 7200 7412 7479 7370 7209 7209 7100 7002 6916 6866 6804 6804 6734 6669 6596 6546 6502 6502 6468 6423 6380 6360 6337 6337 6317 6300 6290 6276 6276 6231 6177 6130 6096 6068 6068 6029 6032 6035 6007 5997 5997 5988 5972 5955 5949 5935 5935 5886 5820 5723 5670 5601 5601 5527 5461 5408 5334 5334 5278 5257 5240 5216 5193 5193 5147 5119 5118 5124 5118 5118 5114 5114 5114 5118 5118 5118 5144 5189 5258 5313 5389 5389 5473 5567 5671 5781 5781 5841 5895 5936 5965 5966 5966 5949 5927 5933 5961 6029 6029 6101 6144 6119 6045 6079 6079 6100 6140 6219 6283 6345 6345 6422 6473 6509 6554 6554 6527 6562 6541 6527 6591 6591 6626 6589 6448 6383 6351 6351 6259 6153 6071 5990 5928 5928 5895 5868 5842 5801 5736 5736 5671 5618 5565 5509 5509 5457 5405 5345 5290 5234 5234 5193 5161 5121 5059 4987 4987 4920 4868 4806 4750 4674 4674 4641 4645 4668 4685 4685 4703 4720 4736 4750 4769 4769 4796 4841 4887 4936 4984 4984 5049 5112 5170 5251 5331 5331 5398 5449 5505 5544 5563 5563 5635 5695 5751 5819 5819 5891 5957 6023 6093 6156 6156 6196 6264 6348 6429 6501 6501 6560 6609 6658 6720 6805 6805 6937 6936 6901 6866 6827 6827 6783 6702 6626 6569 6569 6512 6451 6360 6243 6142 6142 6058 6006 5914 5824 5743 5743 5662 5599 5571 5567 5567 5567 5567 5567 5567 5567 5567 5567 5567 5567 5567 5567 5567 5567 5567 5567 5567 5567 5567 5567 5599 5652 5738 5853 5853 5963 6108 6319 6375 6379 6379 6444 6530 6600 6672 6737 6737 6815 6952 7080 7207 7207 7275 7321 7354 7381 7417 7417 7500 7596 7669 7755 7831 7831 8011 8179 8111 7787 7686 7686 7583 7505 7455 7399 7356 7356 7316 7271 7240 7229 7229 7229 7223 7209 7193 7224 7224 7305 7350 7385 7417 7461 7461 7517 7563 7612 7655 7694 7694 7732 7761 7777 7789 7796 7796 7806 7825 7928 8106 8106 8346 8168 8042 7984 7932 7932 7888 7887 7906 7947 7989 7989 8031 7976 7837 7731 7638 7638 7560 7497 7440 7406 -9999 -9999 -9999
-9999 -9999 -9999 5908 5965 5965 6008 6063 6140 6170 6183 6183 6193 6205 6211 6231 6261 6261 6308 6398 6469 6516 6581 6581 6705 6823 6893 6982 6982 7227 7411 7466 7370 7235 7235 7132 7050 6994 6929 6858 6858 6786 6714 6641 6578 6529 6529 6490 6463 6422 6380 6353 6353 6330 6304 6279 6234 6234 6184 6132 6095 6075 6054 6054 6028 5973 5971 5957 5937 5937 5923 5901 5880 5889 5884 5884 5837 5773 5688 5607 5546 5546 5490 5424 5359 5316 5316 5303 5286 5264 5241 5205 5205 5161 5149 5139 5128 5119 5119 5114 5114 5114 5118 5131 5131 5166 5218 5303 5369 5439 5439 5513 5618 5748 5834 5834 5897 5957 6000 6031 6050 6050 6039 6008 6018 6053 6123 6123 6189 6228 6205 6167 6174 6174 6301 6349 6393 6460 6460 6547 6613 6743 6817 6714 6714 6634 6530 6579 6640 6543 6543 6441 6340 6242 6156 6095 6095 6038 5980 5920 5873 5817 5817 5771 5727 5687 5651 5651 5620 5568 5508 5457 5414 5414 5374 5314 5254 5205 5165 5165 5125 5074 5023 4986 4955 4955 4901 4832 4766 4707 4660 4660 4645 4664 4687 4703 4703 4720 4737 4752 4769 4793 4793 4831 4877 4929 4975 5018 5018 5072 5134 5200 5278 5353 5353 5412 5459 5498 5518 5578 5578 5640 5704 5764 5830 5830 5895 5953 6017 6078 6141 6141 6190 6253 6331 6405 6460 6460 6501 6550 6613 6712 6812 6812 6895 6921 6872 6793 6734 6734 6715 6643 6566 6497 6497 6428 6368 6301 6233 6150 6150 6066 6010 5911 5819 5726 5726 5648 5589 5568 5567 5567 5567 5567 5567 5567 5567 5567 5567 5567 5567 5567 5567 5567 5567 5567 5567 5567 5567 5567 5589 5632 5668 5727 5828 5828 5934 6041 6175 6221 6295 6295 6376 6453 6539 6627 6729 6729 6846 6983 7125 7242 7242 7313 7364 7397 7434 7480 7480 7543 7609 7674 7786 7899 7899 8085 8236 8066 7819 7705 7705 7625 7564 7508 7450 7393 7393 7362 7327 7292 7278 7278 7278 7269 7256 7246 7310 7310 7378 7409 7424 7443 7472 7472 7529 7580 7624 7665 7717 7717 7758 7800 7825 7835 7836 7836 7852 7883 7958 8100 8100 8317 8200 8088 8073 7996 7996 7971 8003 8073 8125 8166 8166 8155 8086 7902 7778 7671 7671 7571 7513 7467 7417 -9999 -9999 -9999
-9999 -9999 -9999 5914 5994 5994 6043 6080 6156 6181 6187 6187 6190 6190 6194 6217 6244 6244 6294 6390 6467 6531 6623 6623 6730 6826 6910 7002 7002 7239 7392 7471 7369 7269 7269 7203 7180 7075 6959 6888 6888 6816 6743 6687 6613 6561 6561 6544 6526 6478 6441 6385 6385 6344 6289 6228 6172 6172 6125 6093 6066 6040 6018 6018 6003 5967 5915 5915 5882 5882 5858 5829 5817 5828 5829 5829 5779 5707 5648 5574 5554 5501 5427 5385 5388 5373 5373 5353 5333 5294 5258 5250 5250 5231 5205 5171 5164 5146 5146 5125 5115 5118 5139 5184 5184 5256 5346 5437 5534 5534 5615 5702 5779 5836 5927 5927 6005 6060 6120 6181 6222 6222 6227 6187 6218 6239 6262 6262 6329 6335 6290 6314 6346 6346 6370 6445 6512 6583 6583 6667 6796 6843 6750 6615 6615 6529 6431 6498 6587 6499 6499 6403 6283 6188 6101 6037 6037 5979 5923 5879 5817 5758 5758 5702 5652 5616 5592 5592 5560 5510 5463 5411 5364 5364 5322 5267 5214 5169 5132 5132 5096 5048 4989 4945 4914 4914 4860 4799 4736 4687 4653 4653 4657 4684 4700 4717 4717 4736 4752 4769 4790 4824 4824 4867 4916 4965 5012 5049 5049 5092 5153 5222 5287 5351 5351 5400 5446 5474 5519 5582 5582 5646 5715 5771 5845 5845 5912 5977 6037 6078 6115 6115 6151 6181 6235 6319 6394 6394 6457 6500 6576 6685 6796 6796 6876 6887 6814 6731 6666 6666 6611 6564 6498 6426 6426 6355 6292 6237 6190 6126 6126 6056 5991 5883 5791 5699 5699 5620 5584 5568 5567 5567 5567 5567 5567 5567 5567 5567 5567 5567 5567 5567 5567 5567 5567 5567 5567 5567 5574 5574 5619 5668 5717 5750 5811 5811 5905 5968 6058 6129 6213 6213 6326 6421 6536 6637 6746 6746 6873 7005 7150 7263 7263 7351 7394 7435 7486 7547 7547 7603 7646 7719 7840 8024 8024 8190 8171 7960 7828 7775 7775 7707 7623 7550 7499 7467 7467 7439 7385 7348 7326 7326 7321 7314 7305 7310 7380 7380 7502 7512 7498 7504 7519 7519 7543 7592 7639 7693 7756 7756 7816 7872 7907 7921 7934 7934 7978 8057 8158 8371 8371 8468 8404 8390 8396 8370 8370 8340 8317 8281 8239 8198 8198 8160 8119 8022 7851 7721 7721 7625 7612 7585 7547 -9999 -9999 -9999
-9999 -9999 -9999 5915 6011 6011 6086 6143 6198 6204 6197 6197 6194 6201 6198 6209 6234 6234 6278 6386 6460 6521 6521 6621 6732 6834 6923 7066 7066 7277 7351 7370 7442 7527 7527 7498 7337 7174 7037 6946 6946 6884 6807 6746 6704 6676 6676 6669 6636 6591 6539 6539 6430 6341 6290 6218 6152 6152 6093 6036 6006 5972 5946 5946 5920 5906 5874 5834 5800 5800 5759 5744 5722 5714 5704 5704 5674 5629 5574 5533 5533 5488 5420 5430 5429 5406 5406 5379 5353 5321 5297 5280 5280 5252 5221 5194 5178 5162 5162 5143 5125 5130 5169 5202 5202 5290 5395 5501 5600 5600 5708 5798 5849 5896 5962 5962 6033 6099 6181 6268 6326 6326 6307 6281 6314 6338 6356 6356 6404 6390 6343 6374 6436 6436 6475 6548 6637 6756 6756 6837 6862 6777 6648 6519 6519 6397 6346 6397 6463 6400 6400 6280 6169 6091 6028 5974 5974 5927 5880 5828 5763 5699 5699 5647 5604 5567 5533 5533 5510 5473 5428 5376 5313 5313 5269 5227 5181 5136 5096 5096 5063 5020 4973 4907 4855 4855 4807 4764 4713 4670 4655 4655 4677 4697 4714 4733 4733 4753 4769 4789 4815 4860 4860 4906 4953 4997 5040 5084 5084 5125 5170 5229 5291 5344 5344 5389 5441 5488 5546 5610 5610 5690 5753 5811 5886 5886 5946 5998 6037 6054 6069 6069 6104 6131 6176 6259 6340 6340 6386 6467 6572 6689 6810 6810 6878 6834 6751 6671 6605 6605 6546 6490 6422 6355 6355 6283 6228 6172 6132 6090 6090 6035 5939 5833 5751 5666 5666 5600 5583 5571 5568 5567 5567 5567 5567 5567 5567 5567 5567 5567 5567 5567 5567 5567 5567 5580 5597 5610 5623 5623 5657 5712 5761 5823 5866 5866 5905 5955 6012 6104 6187 6187 6306 6416 6529 6645 6765 6765 6909 7039 7199 7297 7297 7382 7479 7552 7587 7619 7619 7669 7743 7851 8070 8230 8230 8201 8099 8065 8051 7899 7899 7790 7707 7692 7688 7642 7642 7589 7555 7492 7445 7445 7434 7413 7397 7412 7487 7487 7540 7554 7534 7536 7545 7545 7559 7608 7658 7720 7777 7777 7845 7921 7955 7975 7993 7993 8069 8192 8375 8438 8438 8445 8434 8405 8383 8350 8350 8316 8285 8245 8203 8163 8163 8130 8092 8032 7923 7762 7762 7731 7709 7662 7629 7629 -9999 -9999
-9999 -9999 -9999 5901 6009 6009 6099 6156 6210 6240 6238 6238 6234 6246 6254 6251 6247 6247 6265 6319 6424 6523 6523 6634 6789 6893 7008 7156 7156 7234 7250 7374 7481 7589 7589 7577 7404 7234 7075 6967 6967 6901 6826 6782 6746 6718 6718 6715 6679 6623 6563 6563 6468 6359 6300 6216 6151 6151 6097 6058 6036 5997 5950 5950 5920 5900 5877 5839 5789 5789 5756 5727 5706 5688 5674 5674 5640 5601 5549 5505 5505 5467 5439 5474 5468 5445 5445 5410 5379 5360 5324 5297 5297 5267 5231 5198 5198 5179 5179 5159 5145 5159 5202 5270 5270 5342 5436 5552 5670 5670 5788 5855 5916 5979 6029 6029 6066 6144 6254 6361 6405 6405 6361 6373 6415 6435 6451 6451 6467 6442 6431 6455 6500 6500 6575 6679 6782 6834 6834 6752 6707 6648 6554 6439 6439 6326 6262 6272 6233 6219 6219 6151 6078 6016 5965 5916 5916 5879 5827 5778 5711 5654 5654 5607 5555 5511 5481 5481 5458 5435 5401 5343 5275 5275 5227 5187 5148 5100 5060 5060 5023 4990 4955 4879 4812 4812 4768 4728 4692 4663 4670 4670 4697 4714 4733 4752 4752 4769 4786 4808 4844 4893 4893 4938 4984 5024 5066 5116 5116 5156 5205 5254 5303 5355 5355 5414 5480 5533 5585 5673 5673 5798 5850 5903 5930 5930 5934 5941 5954 5956 5953 5953 5984 6027 6100 6188 6254 6254 6312 6381 6522 6646 6679 6679 6751 6773 6667 6584 6498 6498 6411 6365 6314 6252 6252 6186 6118 6076 6047 6001 6001 5901 5812 5741 5678 5632 5632 5608 5598 5594 5585 5577 5577 5568 5567 5567 5567 5567 5567 5567 5567 5567 5570 5570 5580 5602 5625 5644 5660 5660 5676 5716 5767 5835 5896 5896 5930 5962 6013 6101 6171 6171 6297 6406 6521 6638 6759 6759 6906 7061 7215 7311 7311 7407 7564 7660 7665 7651 7651 7711 7797 7983 8176 8299 8299 8221 8220 8165 8012 7877 7877 7796 7745 7728 7702 7702 7676 7670 7601 7544 7525 7525 7501 7474 7463 7488 7516 7516 7564 7568 7563 7568 7579 7579 7595 7633 7690 7757 7838 7838 7931 7991 8084 8080 8080 8085 8196 8412 8419 8405 8405 8394 8388 8374 8349 8314 8314 8284 8252 8216 8180 8140 8140 8104 8062 8000 7925 7862 7862 7814 7768 7743 7723 7723 -9999 -9999
-9999 -9999 -9999 5892 5986 5986 6068 6133 6208 6254 6270 6270 6267 6264 6275 6283 6284 6284 6291 6334 6441 6559 6559 6660 6805 6896 6965 7003 7003 7129 7263 7403 7498 7602 7602 7559 7443 7285 7113 6980 6980 6907 6865 6835 6792 6764 6764 6754 6716 6660 6597 6597 6530 6446 6353 6242 6162 6162 6119 6085 6049 6003 5955 5955 5931 5914 5883 5856 5818 5818 5785 5748 5723 5699 5673 5673 5653 5627 5575 5502 5502 5465 5481 5512 5504 5481 5481 5452 5420 5383 5340 5301 5301 5274 5251 5225 5228 5203 5203 5177 5158 5189 5256 5335 5335 5421 5499 5590 5718 5718 5822 5899 5965 6041 6101 6101 6139 6201 6320 6425 6456 6456 6436 6477 6507 6531 6520 6520 6538 6495 6491 6532 6585 6585 6664 6772 6764 6702 6702 6615 6574 6539 6452 6367 6367 6259 6188 6159 6108 6087 6087 6047 6010 5959 5908 5862 5862 5820 5785 5723 5670 5614 5614 5503 5454 5405 5364 5364 5336 5316 5294 5272 5227 5227 5169 5106 5066 5035 5000 5000 4968 4932 4890 4838 4776 4776 4721 4689 4672 4684 4710 4710 4730 4749 4766 4783 4783 4802 4831 4876 4923 4959 4959 5004 5038 5074 5117 5156 5156 5221 5268 5319 5379 5436 5436 5499 5562 5620 5682 5763 5763 5824 5869 5896 5903 5903 5898 5896 5906 5911 5929 5929 5954 6015 6089 6146 6215 6215 6287 6356 6461 6560 6568 6568 6675 6794 6721 6624 6537 6537 6418 6331 6274 6221 6221 6166 6102 6050 6011 5947 5947 5857 5783 5722 5678 5639 5639 5624 5622 5611 5601 5591 5591 5578 5568 5567 5567 5567 5567 5567 5567 5570 5580 5580 5599 5627 5658 5685 5702 5702 5719 5740 5780 5850 5921 5921 5956 5979 6018 6091 6159 6159 6274 6388 6515 6636 6636 6758 6908 7081 7252 7359 7359 7488 7626 7666 7595 7618 7618 7756 7967 8113 8269 8338 8338 8317 8300 8128 7980 7883 7883 7812 7762 7744 7728 7728 7718 7688 7638 7605 7585 7585 7558 7526 7526 7555 7565 7565 7574 7582 7588 7604 7622 7622 7638 7669 7724 7799 7982 7982 8111 8193 8230 8199 8199 8251 8394 8417 8395 8375 8375 8365 8355 8343 8321 8288 8288 8255 8222 8189 8154 8117 8117 8078 8026 7954 7892 7848 7848 7807 7778 7769 7749 7749 -9999 -9999
-9999 -9999 -9999 5879 5971 5971 6061 6123 6196 6253 6281 6281 6290 6290 6295 6308 6325 6325 6354 6373 6448 6562 6562 6662 6781 6859 6890 6982 6982 7156 7282 7417 7512 7594 7594 7537 7445 7310 7144 7010 7010 6963 6916 6890 6843 6829 6829 6793 6753 6701 6642 6642 6572 6508 6413 6296 6201 6201 6144 6119 6066 6017 5981 5981 5960 5937 5908 5885 5865 5865 5839 5789 5765 5761 5747 5747 5719 5675 5634 5589 5589 5526 5513 5552 5543 5518 5518 5485 5442 5396 5353 5330 5330 5304 5271 5257 5263 5255 5255 5222 5191 5247 5312 5407 5407 5485 5566 5650 5814 5814 5874 5940 6038 6124 6237 6237 6329 6408 6455 6501 6539 6539 6581 6633 6681 6686 6677 6677 6675 6633 6680 6753 6737 6737 6637 6580 6538 6466 6466 6362 6334 6287 6257 6188 6188 6097 6057 6009 5976 5936 5936 5901 5860 5825 5797 5767 5767 5722 5675 5615 5562 5509 5509 5460 5414 5365 5312 5312 5275 5251 5225 5202 5173 5173 5123 5060 5016 4983 4958 4958 4935 4900 4863 4818 4759 4759 4712 4686 4678 4709 4729 4729 4746 4763 4783 4799 4799 4825 4864 4909 4949 4991 4991 5031 5064 5106 5149 5201 5201 5250 5300 5361 5414 5476 5476 5535 5595 5653 5711 5711 5779 5828 5853 5860 5860 5860 5860 5864 5878 5900 5911 5911 5944 5996 6049 6130 6208 6208 6271 6331 6397 6458 6526 6526 6639 6761 6749 6634 6634 6545 6464 6373 6288 6228 6228 6165 6091 6028 5987 5916 5916 5850 5784 5735 5701 5666 5666 5655 5649 5638 5625 5602 5602 5601 5591 5582 5575 5575 5574 5575 5577 5581 5593 5593 5615 5648 5684 5715 5740 5740 5758 5778 5810 5867 5936 5936 5976 6007 6043 6086 6148 6148 6252 6378 6515 6637 6637 6758 6911 7086 7276 7405 7405 7518 7539 7518 7519 7641 7641 7808 8051 8198 8302 8276 8276 8323 8244 8070 7966 7888 7888 7828 7785 7761 7750 7750 7738 7715 7689 7664 7634 7634 7588 7567 7569 7586 7592 7592 7588 7592 7602 7640 7664 7664 7678 7718 7768 7894 8152 8152 8300 8367 8376 8365 8365 8388 8398 8384 8362 8346 8346 8336 8326 8316 8294 8262 8262 8231 8196 8166 8131 8094 8094 8052 7962 7896 7843 7806 7806 7761 7709 7676 7676 7676 -9999 -9999
-9999 -9999 -9999 5869 5958 5958 6047 6123 6193 6243 6277 6277 6298 6313 6323 6338 6364 6364 6394 6427 6479 6558 6558 6654 6759 6835 6929 7031 7031 7184 7306 7413 7487 7561 7561 7547 7446 7322 7187 7111 7111 7023 6992 6948 6923 6920 6920 6863 6797 6731 6664 6664 6589 6532 6462 6351 6298 6298 6246 6180 6129 6090 6050 6050 6022 5993 5963 5956 5954 5954 5954 5982 5989 5959 5890 5890 5860 5829 5764 5713 5713 5654 5600 5627 5622 5594 5594 5532 5478 5467 5433 5385 5385 5350 5356 5323 5338 5344 5344 5319 5329 5400 5474 5544 5544 5624 5705 5794 5874 5874 5933 5993 6050 6136 6264 6264 6382 6470 6580 6633 6664 6664 6701 6784 6819 6798 6713 6713 6644 6592 6674 6662 6662 6565 6502 6462 6416 6352 6352 6245 6219 6167 6116 6067 6067 5998 5982 5934 5912 5877 5877 5833 5794 5753 5724 5703 5703 5672 5617 5562 5507 5507 5454 5413 5361 5302 5251 5251 5214 5180 5154 5133 5110 5110 5060 5005 4971 4950 4933 4933 4912 4877 4837 4792 4733 4733 4702 4686 4706 4730 4730 4746 4763 4782 4799 4822 4822 4851 4893 4936 4979 5021 5021 5060 5100 5140 5188 5238 5238 5289 5346 5398 5450 5506 5506 5565 5627 5674 5726 5726 5769 5801 5811 5811 5814 5814 5825 5847 5878 5891 5903 5903 5923 5984 6055 6137 6183 6183 6242 6303 6352 6396 6484 6484 6604 6727 6780 6643 6643 6553 6483 6411 6332 6272 6272 6199 6127 6060 6001 5893 5893 5834 5788 5748 5720 5713 5713 5700 5694 5678 5655 5634 5634 5638 5626 5606 5595 5595 5590 5591 5591 5590 5602 5602 5632 5670 5709 5746 5774 5774 5797 5817 5839 5892 5952 5952 5998 6048 6085 6124 6160 6160 6262 6374 6511 6634 6634 6758 6901 7068 7230 7353 7353 7374 7366 7404 7465 7549 7549 7695 7916 7982 8073 8171 8171 8275 8237 8080 7980 7927 7927 7887 7861 7832 7808 7808 7791 7775 7752 7725 7694 7694 7665 7643 7652 7655 7640 7640 7637 7654 7677 7715 7748 7748 7773 7807 7855 7948 8224 8224 8483 8443 8399 8360 8360 8335 8326 8303 8299 8293 8293 8274 8262 8257 8245 8216 8216 8170 8142 8110 8080 8045 8045 7994 7935 7883 7827 7784 7784 7740 7695 7652 7632 7632 -9999 -9999
-9999 -9999 -9999 5851 5931 5911 6011 6082 6141 6183 6229 6229 6273 6319 6359 6385 6418 6418 6457 6506 6564 6646 6646 6721 6800 6881 6985 7101 7101 7212 7295 7381 7462 7573 7573 7661 7536 7444 7358 7297 7297 7241 7182 7153 7130 7130 7067 7021 6947 6839 6733 6733 6653 6584 6505 6413 6367 6367 6289 6222 6182 6141 6099 6099 6070 6027 6013 6023 6032 6032 6050 6079 6085 6025 6025 5976 5949 5903 5857 5826 5826 5725 5640 5660 5654 5624 5624 5547 5522 5502 5459 5401 5401 5407 5409 5375 5391 5406 5406 5390 5424 5471 5552 5552 5632 5687 5776 5857 5925 5925 5992 6048 6098 6146 6279 6279 6404 6508 6633 6733 6820 6820 6847 6873 6841 6727 6642 6642 6584 6492 6468 6371 6371 6339 6361 6295 6261 6175 6175 6134 6091 6067 6034 5957 5957 5887 5879 5856 5852 5820 5820 5780 5745 5697 5659 5635 5635 5606 5559 5512 5461 5461 5414 5358 5302 5241 5185 5185 5156 5134 5104 5081 5052 5052 5001 4971 4947 4921 4904 4904 4879 4856 4824 4773 4715 4715 4699 4706 4736 4753 4753 4769 4783 4799 4822 4851 4851 4887 4930 4966 5007 5043 5043 5084 5129 5172 5224 5279 5279 5348 5395 5438 5486 5543 5543 5604 5654 5703 5730 5730 5750 5756 5762 5762 5777 5777 5814 5845 5870 5881 5896 5896 5945 6010 6072 6129 6164 6164 6203 6252 6311 6386 6460 6460 6565 6690 6792 6695 6695 6614 6547 6540 6408 6361 6361 6270 6221 6164 6081 6005 6005 5930 5877 5840 5817 5796 5796 5780 5767 5747 5732 5733 5733 5730 5718 5695 5674 5674 5661 5666 5667 5662 5649 5649 5659 5696 5748 5791 5835 5835 5878 5907 5938 5964 5993 5993 6053 6110 6156 6209 6252 6252 6300 6407 6531 6637 6637 6732 6839 6966 7062 7149 7149 7247 7315 7378 7463 7571 7571 7688 7848 7984 8094 8206 8206 8315 8272 8182 8052 7977 7977 7940 7910 7887 7862 7862 7845 7822 7795 7759 7742 7742 7720 7687 7688 7680 7669 7669 7671 7687 7713 7751 7788 7788 7814 7838 7890 8023 8303 8303 8455 8428 8375 8324 8324 8274 8254 8250 8251 8259 8259 8249 8220 8224 8225 8189 8189 8136 8085 8059 8033 7994 7994 7939 7903 7887 7822 7752 7752 7698 7670 7639 7586 7586 -9999 -9999
-9999 -9999 -9999 5809 5883 5883 5964 6028 6096 6148 6205 6205 6260 6302 6347 6382 6382 6420 6475 6524 6587 6659 6659 6734 6822 6910 7008 7099 7099 7167 7270 7393 7480 7568 7568 7635 7632 7600 7492 7547 7547 7449 7355 7279 7185 7185 7113 7080 7016 6906 6782 6782 6692 6607 6540 6483 6421 6421 6342 6279 6246 6215 6186 6186 6125 6099 6112 6119 6134 6134 6178 6200 6173 6121 6121 6081 6015 5977 5923 5867 5867 5765 5685 5697 5682 5649 5649 5579 5564 5534 5480 5462 5462 5477 5478 5440 5460 5463 5463 5456 5518 5566 5633 5633 5710 5777 5834 5903 5981 5981 6044 6097 6146 6215 6340 6340 6449 6577 6695 6816 6908 6908 6909 6904 6796 6671 6597 6597 6507 6394 6316 6223 6223 6179 6196 6146 6086 6033 6033 5972 5927 5904 5904 5841 5841 5802 5792 5781 5777 5756 5756 5721 5691 5651 5604 5577 5577 5554 5519 5461 5411 5411 5371 5310 5253 5197 5152 5152 5118 5091 5059 5032 4994 4994 4964 4944 4918 4891 4868 4868 4848 4829 4806 4747 4708 4708 4711 4739 4760 4776 4776 4794 4807 4845 4884 4926 4926 4969 5005 5032 5062 5091 5091 5129 5183 5236 5286 5341 5341 5400 5449 5506 5561 5617 5617 5660 5700 5724 5725 5725 5725 5721 5720 5739 5765 5765 5799 5830 5847 5886 5947 5947 5994 6043 6078 6117 6153 6153 6198 6259 6315 6371 6428 6428 6495 6571 6647 6783 6783 6823 6727 6666 6560 6391 6391 6310 6278 6190 6098 6041 6041 5968 5921 5892 5868 5855 5855 5839 5814 5788 5781 5776 5776 5770 5759 5741 5727 5727 5708 5706 5716 5720 5714 5714 5710 5725 5762 5811 5863 5863 5907 5943 5974 5999 6030 6030 6070 6129 6185 6248 6301 6301 6334 6403 6527 6620 6620 6708 6781 6887 6984 7112 7112 7222 7297 7358 7445 7590 7590 7733 7963 8092 8165 8233 8233 8327 8361 8273 8180 8060 8060 8015 7979 7955 7937 7937 7939 7960 7975 7909 7809 7809 7764 7735 7728 7718 7703 7703 7704 7719 7746 7787 7820 7820 7846 7879 7939 8098 8373 8373 8479 8408 8341 8286 8286 8206 8189 8179 8178 8210 8210 8230 8152 8147 8165 8101 8101 8052 8046 7975 7938 7885 7885 7852 7853 7849 7784 7732 7732 7682 7628 7608 7539 7539 -9999 -9999
-9999 -9999 -9999 5793 5854 5854 5913 5987 6044 6122 6179 6179 6246 6292 6335 6378 6378 6423 6478 6541 6615 6676 6676 6741 6822 6908 6967 7069 7069 7173 7270 7358 7418 7502 7502 7605 7639 7624 7624 7647 7647 7566 7465 7359 7230 7230 7161 7117 7049 6945 6806 6806 6721 6647 6576 6536 6472 6472 6377 6343 6317 6304 6255 6255 6190 6198 6218 6226 6232 6232 6257 6268 6257 6221 6221 6160 6091 6045 5980 5882 5882 5768 5750 5743 5724 5681 5681 5656 5628 5576 5528 5531 5531 5553 5551 5521 5527 5538 5538 5537 5605 5663 5703 5703 5785 5845 5898 5951 6026 6026 6087 6143 6211 6302 6392 6392 6490 6606 6744 6842 6888 6888 6785 6837 6802 6662 6541 6541 6446 6300 6246 6199 6199 6090 6033 5993 5922 5791 5791 5735 5716 5706 5684 5650 5650 5643 5638 5631 5630 5619 5619 5602 5565 5533 5514 5491 5491 5459 5418 5365 5329 5329 5286 5228 5169 5129 5090 5090 5054 5017 4979 4951 4938 4938 4918 4895 4869 4837 4801 4801 4774 4753 4738 4716 4743 4743 4766 4790 4809 4825 4825 4842 4858 4881 4923 4962 4962 5005 5036 5071 5098 5123 5123 5153 5193 5239 5298 5357 5357 5410 5462 5521 5576 5633 5633 5673 5713 5725 5721 5721 5712 5711 5718 5740 5751 5751 5778 5814 5861 5913 5963 5963 6002 6067 6108 6140 6185 6185 6232 6278 6321 6363 6410 6410 6465 6515 6569 6675 6675 6812 6771 6677 6573 6470 6470 6396 6385 6227 6142 6062 6062 5994 5957 5931 5918 5907 5907 5893 5876 5838 5846 5830 5830 5824 5801 5782 5782 5782 5770 5751 5757 5768 5771 5771 5772 5776 5794 5827 5882 5882 5933 5973 6002 6039 6072 6072 6099 6141 6215 6283 6333 6333 6379 6432 6512 6600 6600 6695 6791 6896 7003 7070 7070 7165 7257 7334 7420 7606 7606 7810 8080 8225 8271 8312 8312 8337 8348 8329 8292 8227 8227 8179 8129 8075 8057 8057 8056 8053 8097 7960 7851 7851 7801 7766 7756 7748 7744 7744 7747 7760 7778 7813 7846 7846 7877 7915 8105 8275 8413 8413 8459 8374 8289 8227 8227 8146 8083 8083 8079 8140 8140 8142 8060 7996 7978 7925 7925 7925 7911 7854 7813 7783 7783 7776 7780 7767 7732 7696 7696 7659 7582 7543 7505 7505 -9999 -9999
-9999 -9999 -9999 5777 5826 5826 5881 5946 6016 6087 6154 6154 6222 6276 6325 6368 6368 6413 6471 6543 6612 6664 6664 6726 6812 6862 6942 7049 7049 7171 7241 7289 7385 7491 7491 7561 7591 7606 7618 7636 7636 7603 7503 7418 7334 7334 7247 7162 7069 6962 6853 6853 6766 6696 6642 6583 6508 6508 6445 6426 6411 6392 6337 6337 6278 6278 6289 6296 6311 6311 6325 6315 6302 6267 6267 6193 6133 6087 6014 5894 5894 5875 5852 5944 5869 5881 5881 5868 5815 5811 5837 5835 5835 5818 5780 5708 5731 5724 5724 5702 5798 5856 5887 5887 5904 5969 6025 6078 6128 6128 6186 6247 6348 6472 6582 6582 6665 6732 6733 6704 6611 6611 6578 6462 6370 6337 6321 6321 6248 6135 6032 6080 6080 6020 5911 5825 5771 5727 5727 5686 5640 5631 5624 5593 5593 5585 5579 5568 5565 5556 5556 5546 5518 5482 5460 5445 5445 5410 5372 5329 5295 5295 5247 5188 5143 5103 5064 5064 5027 4991 4958 4938 4924 4924 4899 4873 4849 4821 4787 4787 4758 4748 4735 4740 4766 4766 4789 4809 4826 4848 4848 4872 4889 4914 4955 5001 5001 5035 5071 5100 5130 5156 5156 5180 5200 5243 5298 5363 5363 5413 5468 5525 5579 5636 5636 5676 5707 5726 5704 5704 5704 5725 5755 5778 5791 5791 5801 5831 5881 5935 5988 5988 6056 6114 6153 6193 6229 6229 6264 6307 6356 6396 6426 6426 6463 6506 6567 6665 6665 6795 6853 6823 6714 6604 6604 6528 6483 6293 6191 6105 6105 6050 6001 5981 5974 5961 5961 5956 5933 5909 5911 5902 5902 5882 5860 5833 5832 5832 5818 5802 5795 5808 5817 5817 5825 5825 5838 5857 5899 5899 5952 5995 6039 6076 6115 6115 6148 6172 6223 6293 6342 6342 6410 6475 6546 6634 6634 6720 6827 6947 7057 7133 7133 7205 7298 7390 7516 7649 7649 7881 8132 8253 8284 8304 8304 8314 8328 8333 8330 8330 8316 8304 8259 8203 8211 8211 8219 8206 8102 7927 7868 7868 7830 7808 7793 7787 7787 7787 7787 7792 7814 7906 8001 8001 8122 8236 8401 8425 8425 8357 8280 8189 8066 7996 7996 7958 7935 7915 7895 7878 7878 7859 7836 7817 7797 7783 7783 7773 7758 7726 7699 7667 7667 7653 7670 7655 7616 7616 7596 7546 7491 7436 7376 7376 -9999 -9999
-9999 -9999 -9999 5763 5799 5799 5858 5923 5984 6068 6136 6136 6205 6262 6311 6351 6351 6393 6441 6522 6582 6629 6629 6691 6745 6832 6930 7017 7017 7099 7173 7275 7323 7416 7416 7456 7465 7533 7601 7626 7626 7633 7580 7537 7477 7477 7393 7307 7254 7168 6994 6994 6908 6812 6714 6651 6607 6607 6598 6572 6549 6497 6456 6456 6446 6442 6454 6462 6462 6462 6458 6410 6339 6287 6287 6241 6179 6100 6035 6066 6066 6082 6070 6038 5999 5989 5989 5960 5921 5968 5998 6030 6030 5986 5839 5818 5841 5810 5810 5811 5864 5928 5969 5969 5996 6019 6083 6137 6192 6192 6257 6321 6418 6545 6651 6651 6737 6680 6612 6655 6574 6574 6444 6368 6256 6190 6190 6190 6160 6080 5965 5960 5960 5954 5873 5774 5725 5681 5681 5626 5581 5568 5558 5534 5534 5525 5523 5506 5507 5500 5500 5491 5472 5442 5410 5391 5391 5367 5341 5302 5256 5256 5204 5158 5125 5090 5050 5050 5002 4968 4947 4928 4908 4908 4876 4850 4822 4797 4771 4771 4754 4748 4751 4768 4789 4789 4808 4825 4844 4874 4874 4900 4921 4946 4982 5025 5025 5064 5100 5127 5154 5180 5180 5206 5232 5258 5307 5367 5367 5422 5475 5528 5577 5577 5630 5662 5683 5682 5675 5675 5726 5769 5800 5820 5827 5827 5834 5837 5872 5921 5988 5988 6077 6151 6199 6243 6273 6273 6292 6326 6379 6421 6421 6449 6466 6505 6557 6659 6659 6788 6937 6896 6780 6665 6665 6634 6513 6347 6237 6141 6141 6087 6050 6042 6032 6028 6028 6022 5998 5971 5977 5977 5955 5938 5907 5894 5885 5885 5872 5856 5845 5858 5868 5868 5881 5884 5971 5986 6002 6002 6033 6048 6077 6135 6200 6200 6251 6288 6323 6363 6363 6419 6487 6538 6584 6630 6630 6707 6816 6943 7095 7224 7224 7372 7512 7657 7775 7954 7954 8039 8158 8185 8215 8242 8242 8265 8291 8296 8280 8280 8264 8256 8252 8259 8269 8269 8282 8282 8225 8139 8088 8088 8049 7942 7901 7874 7866 7866 7869 7891 7949 8023 8207 8207 8311 8351 8367 8344 8344 8265 8202 8085 8000 7937 7937 7896 7879 7866 7840 7813 7813 7796 7771 7751 7726 7721 7721 7711 7695 7683 7645 7600 7600 7604 7619 7623 7569 7569 7505 7479 7433 7360 7278 7278 -9999 -9999
-9999 -9999 -9999 5736 5777 5777 5832 5885 5937 6001 6060 6060 6119 6185 6239 6282 6282 6334 6374 6420 6483 6539 6539 6607 6678 6766 6869 6955 6955 7067 7144 7198 7301 7379 7379 7389 7463 7537 7594 7629 7629 7665 7673 7617 7545 7545 7472 7374 7304 7247 7088 7088 6948 6855 6767 6702 6657 6657 6655 6636 6608 6555 6516 6516 6508 6501 6512 6527 6525 6525 6500 6439 6372 6312 6312 6269 6225 6120 6108 6147 6147 6153 6152 6116 6096 6084 6084 6044 6047 6087 6153 6138 6138 6001 5895 5918 5952 5952 5924 5922 5921 6002 6056 6056 6083 6086 6139 6190 6254 6254 6321 6417 6534 6655 6762 6762 6724 6629 6535 6445 6393 6393 6316 6219 6164 6078 6078 6074 6066 6012 5898 5833 5833 5840 5781 5716 5674 5642 5642 5586 5536 5510 5493 5472 5472 5466 5468 5448 5450 5450 5450 5438 5422 5396 5368 5368 5348 5324 5308 5276 5207 5207 5156 5131 5104 5076 5040 5040 4999 4961 4938 4922 4892 4892 4863 4836 4801 4784 4764 4764 4753 4762 4764 4786 4786 4805 4821 4838 4870 4902 4902 4930 4954 4983 5015 5055 5055 5097 5127 5156 5180 5206 5206 5236 5259 5278 5319 5374 5374 5423 5478 5531 5571 5571 5603 5633 5645 5668 5713 5713 5762 5802 5830 5847 5892 5892 5903 5914 5927 5947 5968 5968 6098 6201 6279 6332 6359 6359 6372 6384 6437 6488 6488 6519 6533 6536 6541 6591 6591 6743 6964 6918 6867 6790 6790 6579 6483 6368 6292 6217 6217 6168 6141 6137 6128 6115 6115 6097 6070 6081 6075 6075 6058 6036 6004 5999 5996 5996 5987 5978 5961 5965 5978 5978 5992 6000 6025 6049 6057 6057 6079 6103 6119 6143 6212 6212 6256 6289 6329 6387 6387 6461 6528 6584 6649 6698 6698 6748 6805 6917 7086 7259 7259 7428 7627 7789 7910 8060 8060 8136 8141 8146 8184 8222 8222 8246 8265 8263 8251 8251 8238 8231 8230 8233 8246 8246 8262 8278 8290 8287 8225 8225 8185 8072 8011 7946 7930 7930 7942 7966 8121 8273 8327 8327 8311 8281 8286 8274 8274 8207 8112 8025 7955 7892 7892 7851 7833 7817 7783 7742 7742 7706 7697 7691 7666 7655 7655 7639 7633 7603 7577 7549 7549 7550 7561 7579 7543 7543 7477 7401 7365 7302 7221 7221 -9999 -9999
-9999 -9999 -9999 5736 5777 5777 5823 5869 5917 5969 5969 6019 6076 6132 6195 6251 6251 6296 6324 6356 6416 6486 6486 6569 6640 6706 6818 6985 6985 7033 7033 7127 7234 7305 7305 7398 7469 7515 7557 7557 7631 7684 7740 7708 7628 7628 7547 7440 7356 7283 7150 7150 6980 6906 6828 6756 6712 6712 6702 6682 6663 6614 6574 6574 6567 6554 6558 6583 6583 6581 6542 6478 6401 6331 6331 6289 6229 6191 6198 6226 6226 6226 6232 6199 6198 6179 6179 6125 6164 6158 6194 6167 6167 6013 6021 6035 6056 6056 6019 6028 6009 6036 6106 6106 6142 6147 6195 6255 6317 6317 6404 6508 6611 6736 6788 6788 6652 6542 6399 6323 6240 6240 6191 6108 6038 6014 6014 5972 5974 5922 5839 5788 5788 5730 5690 5646 5609 5577 5577 5546 5511 5471 5439 5416 5416 5408 5412 5393 5393 5392 5392 5386 5377 5361 5353 5353 5343 5314 5286 5234 5172 5172 5126 5097 5071 5042 4970 4970 4950 4931 4911 4882 4846 4846 4826 4807 4796 4790 4784 4784 4786 4790 4802 4819 4819 4835 4855 4880 4913 4948 4948 4985 5027 5062 5098 5127 5127 5153 5182 5209 5238 5264 5264 5294 5323 5341 5363 5398 5398 5428 5473 5516 5553 5553 5585 5624 5683 5743 5787 5787 5820 5848 5870 5901 5935 5935 5965 5983 6016 6049 6081 6081 6145 6240 6320 6373 6416 6416 6442 6444 6476 6539 6539 6575 6586 6584 6593 6658 6658 6846 7002 6951 6887 6815 6815 6664 6508 6392 6320 6252 6252 6216 6206 6197 6180 6157 6157 6131 6128 6130 6117 6117 6102 6079 6053 6058 6061 6061 6058 6050 6030 6014 6037 6037 6051 6058 6066 6089 6100 6100 6125 6149 6166 6199 6240 6240 6308 6355 6389 6414 6414 6468 6539 6602 6675 6739 6739 6804 6865 6911 7034 7240 7240 7448 7706 7855 7942 8054 8054 8124 8080 8092 8159 8207 8207 8219 8227 8228 8225 8225 8220 8214 8210 8213 8223 8223 8233 8251 8274 8291 8304 8304 8279 8171 8129 8107 8040 8040 8058 8101 8290 8337 8284 8284 8234 8210 8192 8173 8173 8128 8059 7989 7918 7855 7855 7808 7780 7753 7706 7673 7673 7624 7625 7638 7604 7591 7591 7578 7577 7545 7521 7496 7496 7498 7516 7531 7525 7525 7469 7383 7305 7258 7190 7190 -9999 -9999
-9999 -9999 -9999 5731 5767 5767 5812 5853 5895 5934 5934 5979 6031 6090 6155 6213 6213 6249 6279 6320 6367 6426 6426 6489 6569 6641 6764 6886 6886 6914 7006 7135 7245 7324 7324 7393 7417 7459 7542 7542 7642 7697 7756 7790 7734 7734 7680 7567 7453 7355 7217 7217 7094 6981 6900 6819 6762 6762 6745 6728 6712 6682 6647 6647 6638 6612 6618 6645 6645 6633 6581 6502 6435 6376 6376 6309 6249 6278 6280 6289 6289 6290 6281 6258 6272 6255 6255 6203 6252 6247 6245 6193 6193 6154 6135 6141 6101 6101 6081 6091 6078 6108 6148 6148 6191 6218 6264 6321 6393 6393 6493 6650 6641 6546 6452 6452 6363 6264 6246 6212 6101 6101 6013 5970 5895 5845 5845 5816 5762 5725 5659 5638 5638 5621 5594 5549 5495 5452 5452 5437 5413 5396 5390 5383 5383 5380 5377 5371 5368 5371 5371 5389 5407 5417 5414 5414 5381 5322 5264 5183 5102 5102 5051 5011 4981 4960 4943 4943 4924 4904 4876 4854 4833 4833 4823 4817 4807 4800 4796 4796 4802 4798 4815 4832 4832 4854 4877 4900 4932 4968 4968 5011 5057 5097 5130 5159 5159 5180 5205 5231 5255 5284 5284 5317 5346 5369 5392 5422 5422 5455 5493 5527 5562 5562 5609 5673 5740 5792 5829 5829 5863 5886 5906 5937 5971 5971 6037 6093 6130 6156 6186 6186 6224 6305 6376 6442 6515 6515 6524 6528 6526 6576 6576 6628 6651 6659 6676 6739 6739 6926 7015 6922 6856 6771 6771 6634 6525 6424 6339 6295 6295 6261 6255 6248 6230 6197 6197 6171 6182 6179 6167 6167 6149 6122 6113 6124 6130 6130 6125 6116 6094 6069 6079 6079 6093 6101 6109 6128 6145 6145 6161 6205 6265 6369 6448 6448 6507 6603 6606 6603 6603 6560 6591 6658 6705 6756 6756 6831 6904 6957 7018 7192 7192 7401 7738 7819 7896 8037 8037 8058 8003 8070 8146 8183 8183 8190 8200 8204 8207 8207 8204 8195 8191 8191 8196 8196 8203 8216 8232 8245 8261 8261 8288 8289 8286 8208 8190 8190 8222 8216 8317 8278 8219 8219 8178 8138 8108 8067 8067 8040 8011 7945 7876 7812 7812 7748 7675 7656 7635 7607 7607 7546 7543 7552 7509 7540 7540 7532 7527 7506 7476 7434 7434 7446 7455 7500 7502 7502 7422 7355 7282 7208 7141 7141 -9999 -9999
-9999 -9999 -9999 5725 5759 5759 5800 5836 5872 5909 5909 5945 6005 6055 6113 6156 6156 6199 6236 6275 6323 6366 6366 6424 6499 6603 6691 6751 6751 6875 7004 7114 7229 7301 7301 7320 7372 7452 7535 7535 7621 7698 7765 7830 7837 7837 7794 7646 7544 7463 7322 7322 7155 7066 6946 6887 6839 6839 6822 6890 6855 6836 6807 6807 6788 6772 6763 6728 6728 6668 6607 6540 6472 6403 6403 6395 6431 6447 6454 6404 6404 6429 6423 6383 6404 6388 6388 6327 6366 6387 6359 6270 6270 6310 6303 6268 6230 6230 6179 6195 6217 6266 6274 6274 6321 6356 6399 6477 6491 6491 6591 6574 6502 6412 6326 6326 6228 6151 6173 6154 6088 6088 6002 5881 5827 5784 5784 5754 5672 5637 5597 5566 5566 5559 5543 5509 5467 5421 5421 5394 5390 5387 5383 5380 5380 5374 5374 5377 5383 5397 5397 5429 5450 5458 5442 5442 5406 5334 5239 5161 5101 5101 5043 4993 4966 4942 4923 4923 4906 4890 4873 4860 4844 4844 4830 4826 4820 4817 4807 4807 4809 4809 4828 4848 4848 4874 4897 4920 4949 4984 4984 5030 5076 5119 5153 5182 5182 5208 5229 5248 5269 5299 5299 5330 5362 5382 5411 5444 5444 5481 5519 5546 5591 5591 5650 5728 5795 5835 5884 5884 5922 5955 5979 5999 6021 6021 6102 6173 6228 6268 6301 6301 6330 6383 6478 6547 6594 6594 6609 6595 6583 6615 6615 6672 6710 6721 6739 6812 6812 6976 7144 6912 6806 6698 6698 6593 6527 6440 6365 6313 6313 6291 6284 6274 6261 6234 6234 6231 6233 6226 6220 6220 6203 6172 6176 6192 6200 6200 6200 6191 6169 6140 6124 6124 6142 6150 6152 6174 6204 6204 6253 6378 6483 6596 6698 6698 6792 6879 6954 6840 6840 6689 6651 6687 6746 6797 6797 6847 6924 7011 7077 7137 7137 7282 7633 7721 7844 8005 8005 7971 7879 7985 8058 8095 8095 8124 8137 8148 8151 8151 8151 8148 8146 8148 8152 8152 8158 8164 8171 8181 8196 8196 8213 8229 8251 8282 8320 8320 8308 8281 8230 8172 8090 8090 8045 8015 7988 7955 7955 7919 7878 7831 7761 7694 7694 7642 7567 7506 7449 7441 7441 7414 7374 7366 7382 7420 7420 7433 7382 7373 7342 7315 7315 7337 7368 7381 7359 7359 7364 7319 7253 7173 7100 7100 -9999 -9999
