ncols     164
nrows     36
xllcorner -124.215138889
yllcorner  41.7506944444
cellsize  2.777777777820000e-04
nodata_value       -9999
1.3683854e+01   1.3838069e+01   1.3961099e+01   1.4151917e+01   1.4398754e+01   1.4581778e+01   1.4749227e+01   1.4976769e+01   1.5191410e+01   1.5343033e+01   1.5506094e+01   1.5702919e+01   1.5856957e+01   1.5959237e+01   1.6048762e+01   1.6094670e+01   1.6164257e+01   1.6187472e+01   1.6220963e+01   1.6286262e+01   1.6304108e+01   1.6317501e+01   1.6290865e+01   1.6220232e+01   1.6164996e+01   1.6088305e+01   1.6007644e+01   1.5935424e+01   1.5903306e+01   1.5838411e+01   1.5761916e+01   1.5647621e+01   1.5558169e+01   1.5445214e+01   1.5304654e+01   1.5159587e+01   1.5039543e+01   1.4899709e+01   1.4772440e+01   1.4631252e+01   1.4606374e+01   1.4609570e+01   1.4504692e+01   1.4133675e+01   1.3795319e+01   1.3467670e+01   1.3079914e+01   1.2681457e+01   1.2340891e+01   1.1977104e+01   1.1596857e+01   1.0565421e+01   9.3326054e+00   8.6022801e+00   7.2171893e+00   5.1469644e+00   3.0786596e+00   1.8001034e+00   1.4707513e+00   2.0561567e+00   3.3698564e+00   4.4703732e+00   4.8041616e+00   4.9721658e+00   5.3482123e+00   5.5369006e+00   5.5100928e+00   5.4506639e+00   5.3589873e+00   5.2532688e+00   4.9737712e+00   4.6279519e+00   4.2803026e+00   4.0064014e+00   3.7734711e+00   3.5621399e+00   3.3535348e+00   3.2169195e+00   3.1011796e+00   2.9753089e+00   2.8706109e+00   2.7726866e+00   2.6818939e+00   2.6351933e+00   2.5791712e+00   2.5416917e+00   2.4032321e+00   2.2620291e+00   2.2300275e+00   2.2302197e+00   2.2348317e+00   2.2584855e+00   2.2524302e+00   2.2317607e+00   2.2330230e+00   2.2302629e+00   2.2300000e+00   2.2300000e+00   2.2300000e+00   2.2277777e+00   2.2300000e+00   2.2300000e+00   2.2300000e+00   2.2312809e+00   2.2301114e+00   2.2300000e+00   2.2300000e+00   2.2300000e+00   2.2251463e+00   2.1912996e+00   2.2231148e+00   2.2300000e+00   2.2250469e+00   2.2295692e+00   2.2300000e+00   2.2300000e+00   2.2300000e+00   2.2312008e+00   2.2067507e+00   2.0447526e+00   1.6341152e+00   9.5298223e-01   7.6195176e-01   8.7961724e-01   1.5032584e+00   1.9164944e+00   1.9791688e+00   1.9008182e+00   2.0493578e+00   2.1901717e+00   2.2313999e+00   2.2301553e+00   2.2300000e+00   2.2300000e+00   2.2300000e+00   2.2300001e+00   2.2300000e+00   2.2300000e+00   2.2300000e+00   2.2320444e+00   2.2301778e+00   2.2300000e+00   2.2300000e+00   2.2300000e+00   2.2267761e+00   2.2300000e+00   2.2300000e+00   2.2300000e+00   2.2279121e+00   2.2321618e+00   2.2449967e+00   2.2689871e+00   2.2742799e+00   2.2559368e+00   2.2402705e+00   2.2316463e+00   2.2302059e+00   2.2300572e+00   2.2300050e+00   2.2300000e+00   2.2323705e+00   2.2685259e+00   2.3101517e+00   2.3374533e+00
1.4198088e+01   1.4248221e+01   1.4274559e+01   1.4379323e+01   1.4521265e+01   1.4669418e+01   1.4883834e+01   1.5106759e+01   1.5287436e+01   1.5477774e+01   1.5658827e+01   1.5793694e+01   1.5898596e+01   1.5985697e+01   1.6048330e+01   1.6057776e+01   1.6088950e+01   1.6066011e+01   1.6087592e+01   1.6122769e+01   1.6171120e+01   1.6184618e+01   1.6147555e+01   1.6124297e+01   1.6090214e+01   1.6025546e+01   1.5970500e+01   1.5896622e+01   1.5806227e+01   1.5793579e+01   1.5725740e+01   1.5629195e+01   1.5527351e+01   1.5419800e+01   1.5286096e+01   1.5159890e+01   1.5049484e+01   1.4957355e+01   1.4869434e+01   1.4770568e+01   1.4726164e+01   1.4669699e+01   1.4546745e+01   1.4286900e+01   1.3967380e+01   1.3666915e+01   1.3258833e+01   1.2857807e+01   1.2479750e+01   1.2082257e+01   1.1675397e+01   1.1403755e+01   1.1249353e+01   1.1111426e+01   1.0576641e+01   9.2157853e+00   6.5205351e+00   3.5085624e+00   1.7885052e+00   1.8222998e+00   2.5131764e+00   3.3049644e+00   3.9116126e+00   4.4094555e+00   4.9398810e+00   5.2070124e+00   5.2348809e+00   5.2008666e+00   5.0332017e+00   4.9341114e+00   4.6963556e+00   4.3671017e+00   4.0201017e+00   3.7061143e+00   3.4344273e+00   3.2845920e+00   3.1135631e+00   2.9810173e+00   2.8640712e+00   2.7391611e+00   2.6306298e+00   2.5251111e+00   2.4359116e+00   2.3567269e+00   2.3648574e+00   2.3609758e+00   2.2930072e+00   2.2340707e+00   2.2300000e+00   2.2300000e+00   2.2309394e+00   2.2300000e+00   2.2300000e+00   2.2300000e+00   2.2290784e+00   2.2299198e+00   2.2300000e+00   2.2300000e+00   2.2300000e+00   2.2302188e+00   2.2300000e+00   2.2300000e+00   2.2300000e+00   2.2316851e+00   2.2301466e+00   2.2300000e+00   2.2300000e+00   2.2300000e+00   2.2322979e+00   2.1912670e+00   2.2231037e+00   2.2253704e+00   2.2275889e+00   2.2295329e+00   2.2300000e+00   2.2297591e+00   2.2246871e+00   2.2138682e+00   2.0366966e+00   1.5152598e+00   1.0331479e+00   9.1225706e-01   8.4832857e-01   1.2628493e+00   1.9475146e+00   2.2211898e+00   2.2276092e+00   2.2277349e+00   2.2298181e+00   2.2300000e+00   2.2311227e+00   2.2300977e+00   2.2300000e+00   2.2300000e+00   2.2300000e+00   2.2312208e+00   2.2300000e+00   2.2300000e+00   2.2300000e+00   2.2291357e+00   2.2299248e+00   2.2300000e+00   2.2300000e+00   2.2300000e+00   2.2341010e+00   2.2300000e+00   2.2301599e+00   2.2314281e+00   2.2380485e+00   2.3400452e+00   2.4991241e+00   2.5804348e+00   2.6026662e+00   2.5591172e+00   2.4934972e+00   2.4139919e+00   2.3377806e+00   2.2576830e+00   2.2330675e+00   2.2312207e+00   2.3135372e+00   2.5221971e+00   2.6977312e+00   2.7630867e+00
1.4548731e+01   1.4714915e+01   1.4721800e+01   1.4744026e+01   1.4871242e+01   1.4992822e+01   1.5178579e+01   1.5286829e+01   1.5427497e+01   1.5601286e+01   1.5723748e+01   1.5820697e+01   1.5883039e+01   1.5954156e+01   1.6004560e+01   1.5984262e+01   1.5901185e+01   1.5849761e+01   1.5830665e+01   1.5871998e+01   1.5934300e+01   1.5980111e+01   1.5951738e+01   1.5927219e+01   1.5923127e+01   1.5877349e+01   1.5777524e+01   1.5760037e+01   1.5691345e+01   1.5664029e+01   1.5623112e+01   1.5539176e+01   1.5407839e+01   1.5270205e+01   1.5164063e+01   1.5023049e+01   1.4926570e+01   1.4849225e+01   1.4799717e+01   1.4729519e+01   1.4672869e+01   1.4641262e+01   1.4519459e+01   1.4320750e+01   1.4077913e+01   1.3775846e+01   1.3393806e+01   1.2969955e+01   1.2574853e+01   1.2231154e+01   1.1959020e+01   1.1906484e+01   1.1910423e+01   1.1893035e+01   1.1785398e+01   1.1497725e+01   1.0052823e+01   6.3851004e+00   3.0318346e+00   1.7429787e+00   2.0033991e+00   2.5507226e+00   3.2007291e+00   3.7397159e+00   4.1231990e+00   4.4295046e+00   4.5819713e+00   4.6075706e+00   4.5139539e+00   4.3705824e+00   4.1885057e+00   3.9493292e+00   3.6443565e+00   3.4237020e+00   3.2328355e+00   3.0738688e+00   2.9083415e+00   2.7644811e+00   2.6295868e+00   2.4948330e+00   2.4001118e+00   2.3020921e+00   2.2517687e+00   2.2330675e+00   2.2391205e+00   2.2439935e+00   2.2323330e+00   2.2300000e+00   2.2300000e+00   2.2300000e+00   2.2289511e+00   2.2300000e+00   2.2300000e+00   2.2300000e+00   2.2310222e+00   2.2300889e+00   2.2300000e+00   2.2300000e+00   2.2300000e+00   2.2310017e+00   2.2300000e+00   2.2300000e+00   2.2300000e+00   2.2283150e+00   2.2298534e+00   2.2300000e+00   2.2300000e+00   2.2300000e+00   2.1858811e+00   1.7933438e+00   2.0711804e+00   1.9514323e+00   1.9472625e+00   2.0730440e+00   2.1717514e+00   2.1500751e+00   1.9905637e+00   1.7773945e+00   1.5010923e+00   1.0195696e+00   1.1667086e+00   1.0669626e+00   1.1144543e+00   1.8347275e+00   2.1954257e+00   2.2299588e+00   2.2291078e+00   2.2300000e+00   2.2300000e+00   2.2300000e+00   2.2283723e+00   2.2298584e+00   2.2300000e+00   2.2300000e+00   2.2300000e+00   2.2352744e+00   2.2300000e+00   2.2300000e+00   2.2300000e+00   2.2307063e+00   2.2300614e+00   2.2300000e+00   2.2300000e+00   2.2300000e+00   2.2284250e+00   2.2411480e+00   2.3136066e+00   2.4158588e+00   2.4986755e+00   2.6580242e+00   2.8549039e+00   2.9781881e+00   3.0202427e+00   3.0150885e+00   2.9709963e+00   2.8983156e+00   2.7771128e+00   2.6156683e+00   2.4375929e+00   2.3422652e+00   2.5475486e+00   2.8609069e+00   3.0935423e+00   3.2230010e+00
1.4645631e+01   1.5129790e+01   1.5250818e+01   1.5322873e+01   1.5427362e+01   1.5449968e+01   1.5487366e+01   1.5522843e+01   1.5622515e+01   1.5654157e+01   1.5721718e+01   1.5785669e+01   1.5866533e+01   1.5912698e+01   1.5925858e+01   1.5886538e+01   1.5781199e+01   1.5690979e+01   1.5662074e+01   1.5628765e+01   1.5665107e+01   1.5728510e+01   1.5722208e+01   1.5706872e+01   1.5706025e+01   1.5670909e+01   1.5539765e+01   1.5517222e+01   1.5492752e+01   1.5486968e+01   1.5418742e+01   1.5331701e+01   1.5213642e+01   1.5129954e+01   1.5037059e+01   1.4905139e+01   1.4780471e+01   1.4687190e+01   1.4624195e+01   1.4579373e+01   1.4546904e+01   1.4556975e+01   1.4502210e+01   1.4314985e+01   1.4084515e+01   1.3779017e+01   1.3400175e+01   1.3064085e+01   1.2730327e+01   1.2472016e+01   1.2309661e+01   1.2222426e+01   1.2132825e+01   1.2029318e+01   1.1935842e+01   1.1769774e+01   1.1574301e+01   9.7061933e+00   5.6421466e+00   2.5157427e+00   1.8351105e+00   2.2118136e+00   2.7514734e+00   2.8637416e+00   3.1396150e+00   3.4174774e+00   3.5958211e+00   3.7339241e+00   3.7969568e+00   3.6673063e+00   3.5493294e+00   3.4163697e+00   3.2681727e+00   3.1539426e+00   2.9838389e+00   2.8212494e+00   2.6446334e+00   2.5219921e+00   2.3899814e+00   2.2872204e+00   2.2443705e+00   2.2282627e+00   2.2300000e+00   2.2300000e+00   2.2300000e+00   2.2269906e+00   2.2297383e+00   2.2300000e+00   2.2300000e+00   2.2300000e+00   2.2288267e+00   2.2300000e+00   2.2300000e+00   2.2300000e+00   2.2292366e+00   2.2299336e+00   2.2300000e+00   2.2300000e+00   2.2300000e+00   2.2300000e+00   2.2300000e+00   2.2300000e+00   2.2300000e+00   2.2309214e+00   2.2300801e+00   2.2300000e+00   2.2300000e+00   2.2299630e+00   1.9696403e+00   1.4472170e+00   1.5653179e+00   1.1637758e+00   1.1305505e+00   1.3339181e+00   1.5440963e+00   1.5276961e+00   1.2076827e+00   1.0425137e+00   1.1169878e+00   1.3374080e+00   1.4593968e+00   1.0440391e+00   1.3777564e+00   2.0323610e+00   2.2278729e+00   2.2300000e+00   2.2307202e+00   2.2300000e+00   2.2300000e+00   2.2300000e+00   2.2296975e+00   2.2299737e+00   2.2300000e+00   2.2300000e+00   2.2300000e+00   2.2364949e+00   2.2300000e+00   2.2300000e+00   2.2300000e+00   2.2271486e+00   2.2297520e+00   2.2300000e+00   2.2300197e+00   2.2341982e+00   2.2969747e+00   2.4903430e+00   2.7338507e+00   2.9140908e+00   3.0580679e+00   3.1817819e+00   3.3082166e+00   3.4134490e+00   3.4868138e+00   3.5116440e+00   3.5065042e+00   3.4715358e+00   3.3732560e+00   3.2822907e+00   3.1709591e+00   3.0837677e+00   3.1540053e+00   3.3548062e+00   3.5632158e+00   3.7132081e+00
1.4580143e+01   1.5237843e+01   1.5532366e+01   1.5707398e+01   1.5752741e+01   1.5779030e+01   1.5725830e+01   1.5676125e+01   1.5674374e+01   1.5723668e+01   1.5778214e+01   1.5848759e+01   1.5868091e+01   1.5862930e+01   1.5853682e+01   1.5821565e+01   1.5710684e+01   1.5586272e+01   1.5508002e+01   1.5440144e+01   1.5431839e+01   1.5444746e+01   1.5533325e+01   1.5474326e+01   1.5481622e+01   1.5472938e+01   1.5329166e+01   1.5289150e+01   1.5251551e+01   1.5269019e+01   1.5209304e+01   1.5135171e+01   1.5015947e+01   1.4933298e+01   1.4886743e+01   1.4797565e+01   1.4701730e+01   1.4570385e+01   1.4482746e+01   1.4418590e+01   1.4407755e+01   1.4365897e+01   1.4335566e+01   1.4198930e+01   1.3986841e+01   1.3704587e+01   1.3377297e+01   1.3080512e+01   1.2818388e+01   1.2625039e+01   1.2486518e+01   1.2347207e+01   1.2233310e+01   1.2122779e+01   1.1990688e+01   1.1860682e+01   1.1702995e+01   1.1335517e+01   8.4697931e+00   4.8961488e+00   3.4113711e+00   3.2228903e+00   3.1853152e+00   2.5672846e+00   2.4942554e+00   2.6170506e+00   2.7527782e+00   3.0459803e+00   3.1840720e+00   3.0508988e+00   2.9704825e+00   2.9788265e+00   2.9412977e+00   2.8141277e+00   2.6437388e+00   2.4813672e+00   2.3582745e+00   2.2831566e+00   2.2421037e+00   2.2304306e+00   2.2300000e+00   2.2289985e+00   2.2300000e+00   2.2300000e+00   2.2300000e+00   2.2283016e+00   2.2298523e+00   2.2300000e+00   2.2300000e+00   2.2300000e+00   2.2301718e+00   2.2300000e+00   2.2300000e+00   2.2300000e+00   2.2300570e+00   2.2300050e+00   2.2300000e+00   2.2300000e+00   2.2300000e+00   2.2328805e+00   2.2300000e+00   2.2300000e+00   2.2300000e+00   2.2292365e+00   2.2299336e+00   2.2300000e+00   2.2293026e+00   2.1851407e+00   1.6163434e+00   1.2734665e+00   1.0567694e+00   1.3187747e+00   1.5347535e+00   1.2897826e+00   1.1641015e+00   1.1608692e+00   1.3571486e+00   1.6938240e+00   1.9120090e+00   1.8398820e+00   1.4112728e+00   1.0056683e+00   1.6151903e+00   2.1306988e+00   2.2318127e+00   2.2455932e+00   2.2467256e+00   2.2318180e+00   2.2300000e+00   2.2300000e+00   2.2270343e+00   2.2297420e+00   2.2300000e+00   2.2300000e+00   2.2300000e+00   2.2296852e+00   2.2300000e+00   2.2300000e+00   2.2300000e+00   2.2270342e+00   2.2297420e+00   2.2308375e+00   2.2700524e+00   2.4425445e+00   2.7689047e+00   3.1042577e+00   3.3971234e+00   3.6355552e+00   3.8224200e+00   3.9013622e+00   3.9453540e+00   3.9606699e+00   4.0394686e+00   4.1661907e+00   4.2484704e+00   4.3132371e+00   4.2775418e+00   4.2619416e+00   4.1972594e+00   4.1681449e+00   4.1331977e+00   4.1055786e+00   4.1655843e+00   4.3074270e+00
1.4546886e+01   1.5247720e+01   1.5624424e+01   1.5848307e+01   1.5971905e+01   1.5980359e+01   1.5919364e+01   1.5820970e+01   1.5789474e+01   1.5784055e+01   1.5826626e+01   1.5849020e+01   1.5825614e+01   1.5811809e+01   1.5763999e+01   1.5721460e+01   1.5592269e+01   1.5495388e+01   1.5402045e+01   1.5283907e+01   1.5211436e+01   1.5218406e+01   1.5277457e+01   1.5305808e+01   1.5240213e+01   1.5185098e+01   1.5106104e+01   1.5067487e+01   1.5036564e+01   1.5029723e+01   1.5009770e+01   1.4939963e+01   1.4871100e+01   1.4744604e+01   1.4682143e+01   1.4643471e+01   1.4607799e+01   1.4511401e+01   1.4371364e+01   1.4258367e+01   1.4195480e+01   1.4123245e+01   1.4028843e+01   1.3935281e+01   1.3795804e+01   1.3533017e+01   1.3304822e+01   1.3062292e+01   1.2842109e+01   1.2654972e+01   1.2526710e+01   1.2407224e+01   1.2299047e+01   1.2183024e+01   1.2083649e+01   1.1972131e+01   1.1797389e+01   1.1660889e+01   1.0460009e+01   7.4011891e+00   6.0222957e+00   5.4413895e+00   4.8459351e+00   3.0674894e+00   2.4328582e+00   2.4304703e+00   2.4631732e+00   2.6125862e+00   2.5822058e+00   2.5036405e+00   2.5268786e+00   2.5917890e+00   2.6630247e+00   2.5528667e+00   2.3342638e+00   2.2547762e+00   2.2328653e+00   2.2301595e+00   2.2300000e+00   2.2300000e+00   2.2300000e+00   2.2310016e+00   2.2300000e+00   2.2300000e+00   2.2300000e+00   2.2330230e+00   2.2302629e+00   2.2300000e+00   2.2300000e+00   2.2300000e+00   2.2309394e+00   2.2300000e+00   2.2300000e+00   2.2300000e+00   2.2334968e+00   2.2063866e+00   2.1660644e+00   2.1764463e+00   2.2429187e+00   2.2263814e+00   2.2300000e+00   2.2300000e+00   2.2300000e+00   2.2307635e+00   2.2300664e+00   2.2282745e+00   2.1632124e+00   1.8495484e+00   1.2736368e+00   1.0402263e+00   1.4392994e+00   1.9413933e+00   2.1522096e+00   2.0580698e+00   1.9898238e+00   1.9762453e+00   2.0833797e+00   2.1761281e+00   2.0388852e+00   1.5925741e+00   1.0276115e+00   1.3543428e+00   1.9577843e+00   2.2260466e+00   2.2866004e+00   2.3574873e+00   2.3805414e+00   2.2977161e+00   2.2376994e+00   2.2301073e+00   2.2277977e+00   2.2298084e+00   2.2300000e+00   2.2300000e+00   2.2300000e+00   2.2337104e+00   2.2300000e+00   2.2300197e+00   2.2307097e+00   2.2381847e+00   2.2860492e+00   2.3888848e+00   2.6791457e+00   3.1429036e+00   3.6415414e+00   4.0915897e+00   4.4325143e+00   4.6188878e+00   4.7021155e+00   4.6708772e+00   4.5574566e+00   4.4925226e+00   4.5929423e+00   4.8131770e+00   4.9684658e+00   5.1106991e+00   5.1737407e+00   5.1505572e+00   5.0771884e+00   4.9545986e+00   4.8167347e+00   4.6500244e+00   4.5981626e+00   4.7873576e+00
1.4515250e+01   1.5218114e+01   1.5559810e+01   1.5720061e+01   1.5913055e+01   1.6107132e+01   1.6092335e+01   1.6004705e+01   1.5947983e+01   1.5891511e+01   1.5860085e+01   1.5890806e+01   1.5817200e+01   1.5715356e+01   1.5629120e+01   1.5574723e+01   1.5512618e+01   1.5399158e+01   1.5277242e+01   1.5145817e+01   1.5053421e+01   1.5014644e+01   1.5036087e+01   1.5062353e+01   1.5062938e+01   1.4965950e+01   1.4884543e+01   1.4860376e+01   1.4810803e+01   1.4821895e+01   1.4826366e+01   1.4786799e+01   1.4743293e+01   1.4632403e+01   1.4533830e+01   1.4459613e+01   1.4433292e+01   1.4393503e+01   1.4266847e+01   1.4124187e+01   1.4006983e+01   1.3871970e+01   1.3792009e+01   1.3667142e+01   1.3523835e+01   1.3354351e+01   1.3113256e+01   1.2827507e+01   1.2646428e+01   1.2526772e+01   1.2395037e+01   1.2360021e+01   1.2260401e+01   1.2146036e+01   1.2070590e+01   1.2014508e+01   1.1863620e+01   1.1716796e+01   1.1427616e+01   9.1897821e+00   7.3572908e+00   6.5261801e+00   5.7090088e+00   3.8820020e+00   2.5377947e+00   2.4419896e+00   2.4162500e+00   2.2941370e+00   2.2476215e+00   2.2447399e+00   2.2523297e+00   2.2929613e+00   2.3468996e+00   2.3184829e+00   2.2399867e+00   2.2300137e+00   2.2298420e+00   2.2299863e+00   2.2300000e+00   2.2300000e+00   2.2300000e+00   2.2279969e+00   2.2300000e+00   2.2300000e+00   2.2300000e+00   2.2357600e+00   2.2305010e+00   2.2300000e+00   2.2300000e+00   2.2301008e+00   2.2262550e+00   2.2316238e+00   2.2304359e+00   2.2282837e+00   2.1677275e+00   1.9966018e+00   1.9370869e+00   1.9529044e+00   2.2009992e+00   2.2277822e+00   2.2300000e+00   2.2300000e+00   2.2300000e+00   2.2306628e+00   2.2224714e+00   2.1046212e+00   1.7337567e+00   1.3948554e+00   1.2132791e+00   1.5313818e+00   2.0078413e+00   2.2137105e+00   2.2298581e+00   2.2294726e+00   2.2284819e+00   2.2275682e+00   2.2240292e+00   2.0713835e+00   1.5766761e+00   1.0176296e+00   1.2886207e+00   1.8810108e+00   2.1949268e+00   2.3262413e+00   2.4119107e+00   2.4901528e+00   2.5382757e+00   2.4798713e+00   2.3394105e+00   2.2416640e+00   2.2303088e+00   2.2300175e+00   2.2387219e+00   2.2710366e+00   2.2999612e+00   2.2906397e+00   2.2836452e+00   2.2985407e+00   2.3787412e+00   2.5317942e+00   2.8059965e+00   3.1087111e+00   3.5519448e+00   4.1358545e+00   4.7414853e+00   5.1379943e+00   5.3393706e+00   5.4037807e+00   5.3979211e+00   5.3000458e+00   5.0914932e+00   5.0201076e+00   5.1432961e+00   5.3881085e+00   5.6690266e+00   5.9108572e+00   6.0421452e+00   6.0694827e+00   5.9829423e+00   5.7555749e+00   5.4109954e+00   5.0696169e+00   4.9411987e+00   5.1909396e+00
1.4387168e+01   1.5153840e+01   1.5531428e+01   1.5554457e+01   1.5640070e+01   1.5940203e+01   1.6168479e+01   1.6175151e+01   1.6100439e+01   1.5992259e+01   1.5925488e+01   1.5908693e+01   1.5852464e+01   1.5755481e+01   1.5590366e+01   1.5468001e+01   1.5353102e+01   1.5251813e+01   1.5111967e+01   1.4986674e+01   1.4906757e+01   1.4832415e+01   1.4816889e+01   1.4816694e+01   1.4877621e+01   1.4835690e+01   1.4752560e+01   1.4680255e+01   1.4624078e+01   1.4586508e+01   1.4586314e+01   1.4595241e+01   1.4612588e+01   1.4569802e+01   1.4486296e+01   1.4348456e+01   1.4244640e+01   1.4182472e+01   1.4088003e+01   1.3983762e+01   1.3840239e+01   1.3666018e+01   1.3561021e+01   1.3451430e+01   1.3321459e+01   1.3105642e+01   1.2892674e+01   1.2595346e+01   1.2361377e+01   1.2285514e+01   1.2199407e+01   1.2166719e+01   1.2126039e+01   1.2058364e+01   1.1994672e+01   1.1935620e+01   1.1852681e+01   1.1784321e+01   1.1661723e+01   1.0647778e+01   8.0214773e+00   7.0149533e+00   6.0095176e+00   4.7040129e+00   3.3377317e+00   2.6053188e+00   2.2985532e+00   2.2340260e+00   2.2331831e+00   2.2300000e+00   2.2300000e+00   2.2302197e+00   2.2299676e+00   2.2308103e+00   2.2300137e+00   2.2300000e+00   2.2298421e+00   2.2299863e+00   2.2300000e+00   2.2300000e+00   2.2300000e+00   2.2290610e+00   2.2300000e+00   2.2301797e+00   2.2313392e+00   2.2335362e+00   2.2303753e+00   2.2301205e+00   2.2317632e+00   2.2364614e+00   2.0815860e+00   2.0807520e+00   2.0982347e+00   2.0760556e+00   1.9633158e+00   1.9304109e+00   1.9300000e+00   1.9716178e+00   2.2166836e+00   2.2322530e+00   2.2300000e+00   2.2299803e+00   2.2292197e+00   2.2090582e+00   2.0609067e+00   1.7503873e+00   1.3832406e+00   1.1570544e+00   1.3102810e+00   1.7553155e+00   2.2210965e+00   2.2299863e+00   2.2300000e+00   2.2300000e+00   2.2300000e+00   2.2301008e+00   2.1918942e+00   1.8313708e+00   1.1118257e+00   1.2616295e+00   1.8953643e+00   2.1863090e+00   2.2398895e+00   2.3415335e+00   2.4989716e+00   2.6064048e+00   2.7049149e+00   2.7081688e+00   2.5710592e+00   2.3572652e+00   2.2550642e+00   2.2315062e+00   2.2947979e+00   2.5031287e+00   2.6805139e+00   2.7331098e+00   2.7332832e+00   2.7426245e+00   2.8904445e+00   3.1903055e+00   3.5538537e+00   3.9936738e+00   4.4899021e+00   5.0089373e+00   5.3879202e+00   5.5463892e+00   5.6625249e+00   5.7199770e+00   5.7590845e+00   5.7195696e+00   5.5705811e+00   5.5547184e+00   5.7585721e+00   6.0654937e+00   6.4744953e+00   6.8267715e+00   7.0800481e+00   7.1916556e+00   7.0868164e+00   6.7749298e+00   6.2811633e+00   5.6291017e+00   5.3743508e+00   5.8791719e+00
1.4218345e+01   1.5019671e+01   1.5494438e+01   1.5547411e+01   1.5491745e+01   1.5643489e+01   1.6023220e+01   1.6257592e+01   1.6228208e+01   1.6189699e+01   1.6046209e+01   1.5933389e+01   1.5850791e+01   1.5756060e+01   1.5637192e+01   1.5453892e+01   1.5238365e+01   1.5096785e+01   1.4964898e+01   1.4863855e+01   1.4769437e+01   1.4685398e+01   1.4642407e+01   1.4626971e+01   1.4649721e+01   1.4657352e+01   1.4623832e+01   1.4588520e+01   1.4508884e+01   1.4435260e+01   1.4438126e+01   1.4437215e+01   1.4440728e+01   1.4426783e+01   1.4377065e+01   1.4250725e+01   1.4077695e+01   1.3964970e+01   1.3869199e+01   1.3787014e+01   1.3676686e+01   1.3475551e+01   1.3347067e+01   1.3220799e+01   1.3081784e+01   1.2842695e+01   1.2571803e+01   1.2319377e+01   1.2071203e+01   1.1944068e+01   1.1889162e+01   1.1859313e+01   1.1865888e+01   1.1851807e+01   1.1867655e+01   1.1829125e+01   1.1775859e+01   1.1717097e+01   1.1626138e+01   1.1313060e+01   8.9119515e+00   7.4326230e+00   6.5281129e+00   5.5210096e+00   4.3410079e+00   2.9259217e+00   2.2881169e+00   2.2295675e+00   2.2274076e+00   2.2300000e+00   2.2300000e+00   2.2300000e+00   2.2288266e+00   2.2300000e+00   2.2300000e+00   2.2300000e+00   2.2310795e+00   2.2300939e+00   2.2300000e+00   2.2300000e+00   2.2300000e+00   2.2350403e+00   2.2323222e+00   2.2649412e+00   2.3067224e+00   2.2799467e+00   2.2493638e+00   2.2573245e+00   2.2969490e+00   2.3372909e+00   2.0233147e+00   1.9300000e+00   1.9317936e+00   1.9311271e+00   1.9282144e+00   1.9298447e+00   1.9305776e+00   2.0153558e+00   2.2179544e+00   2.2290608e+00   2.2300000e+00   2.2296198e+00   2.2076615e+00   2.0908315e+00   1.6246344e+00   1.2579232e+00   1.2631489e+00   1.3731638e+00   1.6648432e+00   2.1654130e+00   2.2298763e+00   2.2300000e+00   2.2307064e+00   2.2300614e+00   2.2300000e+00   2.2282248e+00   2.0657507e+00   1.5130587e+00   1.0002183e+00   1.5980271e+00   2.1266460e+00   2.2317573e+00   2.2526663e+00   2.3816266e+00   2.5366455e+00   2.6701058e+00   2.7899726e+00   2.8219886e+00   2.8321951e+00   2.7256578e+00   2.5085579e+00   2.3607839e+00   2.4291231e+00   2.6920066e+00   2.9553173e+00   3.1411152e+00   3.2413160e+00   3.3183996e+00   3.5373835e+00   3.9144424e+00   4.2706889e+00   4.6961313e+00   5.1377259e+00   5.4244478e+00   5.5948531e+00   5.7405527e+00   5.8903657e+00   5.9762591e+00   6.0280711e+00   6.0721801e+00   6.1316938e+00   6.2456101e+00   6.5055160e+00   6.9181276e+00   7.4027471e+00   7.8229964e+00   8.1302492e+00   8.2745560e+00   8.2327087e+00   7.9954371e+00   7.6734745e+00   7.3919535e+00   7.3247086e+00   7.7102909e+00
1.4327926e+01   1.4948482e+01   1.5434201e+01   1.5579466e+01   1.5534698e+01   1.5494804e+01   1.5735846e+01   1.6177995e+01   1.6402502e+01   1.6363484e+01   1.6236729e+01   1.6093193e+01   1.5934638e+01   1.5788890e+01   1.5638589e+01   1.5462839e+01   1.5234596e+01   1.5024895e+01   1.4881578e+01   1.4780404e+01   1.4686487e+01   1.4609423e+01   1.4539654e+01   1.4506465e+01   1.4501357e+01   1.4471586e+01   1.4488576e+01   1.4506417e+01   1.4468323e+01   1.4355711e+01   1.4260050e+01   1.4229831e+01   1.4222427e+01   1.4205973e+01   1.4159381e+01   1.4062952e+01   1.3904144e+01   1.3776059e+01   1.3634113e+01   1.3541280e+01   1.3421250e+01   1.3276051e+01   1.3130910e+01   1.2969819e+01   1.2824963e+01   1.2620656e+01   1.2356770e+01   1.2067447e+01   1.1812846e+01   1.1625517e+01   1.1510932e+01   1.1514397e+01   1.1475288e+01   1.1509579e+01   1.1566689e+01   1.1561863e+01   1.1573230e+01   1.1536296e+01   1.1425308e+01   1.0951416e+01   9.1276178e+00   7.9251915e+00   7.7394429e+00   7.1680967e+00   5.7044613e+00   4.2039360e+00   2.8952124e+00   2.2750493e+00   2.2266575e+00   2.2300000e+00   2.2300000e+00   2.2300000e+00   2.2310017e+00   2.2300000e+00   2.2300000e+00   2.2300000e+00   2.2263280e+00   2.2296806e+00   2.2300000e+00   2.2300000e+00   2.2300197e+00   2.2387811e+00   2.3242125e+00   2.4100843e+00   2.4137773e+00   2.4233881e+00   2.3967180e+00   2.3870257e+00   2.3189226e+00   2.0997299e+00   1.9481117e+00   1.9331467e+00   1.9331467e+00   1.9354799e+00   1.9324485e+00   1.9359996e+00   1.9499974e+00   2.1258049e+00   2.2357545e+00   2.2322071e+00   2.2364798e+00   2.2362516e+00   2.1937079e+00   1.6621699e+00   1.3152449e+00   1.6472953e+00   1.8525997e+00   1.8835955e+00   2.1575296e+00   2.2301030e+00   2.2300088e+00   2.2300000e+00   2.2304167e+00   2.2300362e+00   2.2300616e+00   2.1646592e+00   1.7430305e+00   1.1014797e+00   1.2802582e+00   1.9208478e+00   2.2052938e+00   2.2379770e+00   2.3246259e+00   2.4626819e+00   2.6032111e+00   2.7424741e+00   2.8780254e+00   2.9797226e+00   3.0199828e+00   3.0215780e+00   2.9582408e+00   2.8766345e+00   2.8627792e+00   3.0100740e+00   3.2486086e+00   3.4971315e+00   3.7195521e+00   3.8632168e+00   4.1394078e+00   4.4749332e+00   4.8040112e+00   5.1571890e+00   5.4433511e+00   5.6202309e+00   5.7844174e+00   5.9502089e+00   6.0805260e+00   6.1736781e+00   6.3061506e+00   6.4346622e+00   6.5825289e+00   6.8162274e+00   7.1225783e+00   7.5714211e+00   8.0625932e+00   8.3660660e+00   8.4666532e+00   8.5034908e+00   8.5166066e+00   8.5183076e+00   8.4948921e+00   8.4716363e+00   8.4887528e+00   8.5476576e+00
1.4771568e+01   1.5061287e+01   1.5351612e+01   1.5537710e+01   1.5586057e+01   1.5490054e+01   1.5518515e+01   1.5877718e+01   1.6361135e+01   1.6484767e+01   1.6388726e+01   1.6253255e+01   1.6095813e+01   1.5877849e+01   1.5605208e+01   1.5400479e+01   1.5178043e+01   1.4968107e+01   1.4804497e+01   1.4703644e+01   1.4628729e+01   1.4556323e+01   1.4489544e+01   1.4399493e+01   1.4353148e+01   1.4315526e+01   1.4336913e+01   1.4359092e+01   1.4326393e+01   1.4233985e+01   1.4118724e+01   1.4036471e+01   1.3996193e+01   1.3961220e+01   1.3911638e+01   1.3816717e+01   1.3719139e+01   1.3532044e+01   1.3366520e+01   1.3213586e+01   1.3113828e+01   1.2937035e+01   1.2772105e+01   1.2646360e+01   1.2521840e+01   1.2356934e+01   1.2167043e+01   1.1871478e+01   1.1618805e+01   1.1413611e+01   1.1273258e+01   1.1204490e+01   1.1172975e+01   1.1203711e+01   1.1258362e+01   1.1253806e+01   1.1293658e+01   1.1233431e+01   1.0996086e+01   1.0416924e+01   9.4149880e+00   8.7343786e+00   8.6269547e+00   8.4273497e+00   7.4047134e+00   6.0274673e+00   4.5668623e+00   3.0108655e+00   2.2829467e+00   2.2302269e+00   2.2300000e+00   2.2300000e+00   2.2332708e+00   2.2300000e+00   2.2300000e+00   2.2300000e+00   2.2297849e+00   2.2299813e+00   2.2300000e+00   2.2300197e+00   2.2411657e+00   2.3261926e+00   2.4561181e+00   2.5161394e+00   2.5300846e+00   2.5317607e+00   2.5287973e+00   2.5190943e+00   2.4023377e+00   1.9846320e+00   1.9372167e+00   1.9400000e+00   1.9400000e+00   1.9400000e+00   1.9473203e+00   2.0221869e+00   2.1418507e+00   2.2346972e+00   2.2399863e+00   2.2378870e+00   2.2400000e+00   2.2240163e+00   1.7769476e+00   1.2469252e+00   1.8206084e+00   2.0661566e+00   2.0487820e+00   2.1625316e+00   2.2378219e+00   2.2393047e+00   2.2365600e+00   2.2352579e+00   2.2339565e+00   2.2305374e+00   2.2149054e+00   1.9467410e+00   1.2978164e+00   1.0802294e+00   1.7407587e+00   2.1677730e+00   2.2309563e+00   2.2597802e+00   2.4000765e+00   2.5421634e+00   2.6784934e+00   2.8223806e+00   2.9647834e+00   3.0809941e+00   3.1921359e+00   3.2578382e+00   3.2978717e+00   3.3371127e+00   3.3319047e+00   3.4368487e+00   3.6064210e+00   3.8928700e+00   4.1357637e+00   4.3588387e+00   4.6010265e+00   4.9015868e+00   5.2152428e+00   5.4303784e+00   5.5940533e+00   5.7327695e+00   5.8750114e+00   6.0486694e+00   6.1971044e+00   6.3443480e+00   6.4895881e+00   6.6417669e+00   6.8646883e+00   7.1229679e+00   7.4363239e+00   7.8143071e+00   8.1532933e+00   8.3183094e+00   8.3644567e+00   8.3994955e+00   8.4262239e+00   8.4489803e+00   8.4255294e+00   8.4014445e+00   8.3818051e+00   8.3939709e+00
1.5105215e+01   1.5268153e+01   1.5351753e+01   1.5416511e+01   1.5470880e+01   1.5452748e+01   1.5434288e+01   1.5663600e+01   1.6094506e+01   1.6481312e+01   1.6508011e+01   1.6420350e+01   1.6225217e+01   1.5980393e+01   1.5710617e+01   1.5424683e+01   1.5136602e+01   1.4927303e+01   1.4784342e+01   1.4645382e+01   1.4556678e+01   1.4504811e+01   1.4449753e+01   1.4355138e+01   1.4249520e+01   1.4170937e+01   1.4160459e+01   1.4159980e+01   1.4136720e+01   1.4060109e+01   1.3982444e+01   1.3894083e+01   1.3828589e+01   1.3787390e+01   1.3710684e+01   1.3587053e+01   1.3500694e+01   1.3311446e+01   1.3065164e+01   1.2932666e+01   1.2782752e+01   1.2611614e+01   1.2485207e+01   1.2388808e+01   1.2324543e+01   1.2227422e+01   1.2080992e+01   1.1865258e+01   1.1670014e+01   1.1501207e+01   1.1317256e+01   1.1115939e+01   1.1019564e+01   1.0953553e+01   1.0947859e+01   1.0939593e+01   1.0882919e+01   1.0726679e+01   1.0510545e+01   1.0147275e+01   9.7225900e+00   9.3560932e+00   9.0672548e+00   8.8206007e+00   8.5809383e+00   8.1826141e+00   7.5143586e+00   5.9528310e+00   4.0060727e+00   2.8389085e+00   2.3402593e+00   2.2336946e+00   2.2332325e+00   2.2300000e+00   2.2300000e+00   2.2300000e+00   2.2328711e+00   2.2305680e+00   2.2369297e+00   2.2536948e+00   2.3123397e+00   2.4533868e+00   2.5380773e+00   2.5641140e+00   2.5737901e+00   2.5705681e+00   2.5327861e+00   2.3973209e+00   2.1363356e+00   1.9621686e+00   1.9386854e+00   1.9400000e+00   1.9406817e+00   1.9431543e+00   1.9540468e+00   2.0482481e+00   2.2298926e+00   2.2400000e+00   2.2400000e+00   2.2365374e+00   2.2254565e+00   1.9492755e+00   1.2788469e+00   1.3797404e+00   2.0602518e+00   2.1317962e+00   2.1831342e+00   2.2388811e+00   2.2375586e+00   2.2400000e+00   2.2400000e+00   2.2400000e+00   2.2351986e+00   2.2106899e+00   2.0442349e+00   1.5660922e+00   9.8996265e-01   1.4626514e+00   2.0551218e+00   2.2289974e+00   2.2309742e+00   2.2826846e+00   2.4181064e+00   2.5793486e+00   2.7367909e+00   2.8971977e+00   3.0539082e+00   3.2019665e+00   3.3266126e+00   3.4554720e+00   3.5642985e+00   3.6611125e+00   3.7523915e+00   3.8092178e+00   4.0133152e+00   4.2790983e+00   4.4872891e+00   4.7235898e+00   4.9758513e+00   5.2201447e+00   5.4282988e+00   5.5777380e+00   5.6911193e+00   5.8129721e+00   5.9265905e+00   6.0662452e+00   6.2006685e+00   6.3698758e+00   6.5677289e+00   6.7675536e+00   7.0160559e+00   7.2441653e+00   7.5093318e+00   7.7991030e+00   8.0030942e+00   8.1167072e+00   8.1839075e+00   8.2317803e+00   8.2838567e+00   8.2881105e+00   8.2586577e+00   8.2348571e+00   8.2555503e+00   8.3082847e+00
1.5342811e+01   1.5300900e+01   1.5320374e+01   1.5263775e+01   1.5235395e+01   1.5317275e+01   1.5445745e+01   1.5616797e+01   1.5941056e+01   1.6334252e+01   1.6384179e+01   1.6255350e+01   1.6186008e+01   1.6017276e+01   1.5704642e+01   1.5430437e+01   1.5171578e+01   1.4947943e+01   1.4764629e+01   1.4620441e+01   1.4518745e+01   1.4433379e+01   1.4355212e+01   1.4276280e+01   1.4180737e+01   1.4096786e+01   1.4049264e+01   1.4036224e+01   1.3992227e+01   1.3919027e+01   1.3870940e+01   1.3802758e+01   1.3717257e+01   1.3654200e+01   1.3555364e+01   1.3421496e+01   1.3252828e+01   1.3052964e+01   1.2779026e+01   1.2569309e+01   1.2440414e+01   1.2275052e+01   1.2136503e+01   1.2040361e+01   1.2010814e+01   1.2003365e+01   1.1986822e+01   1.1919671e+01   1.1818027e+01   1.1696689e+01   1.1506667e+01   1.1310661e+01   1.1064682e+01   1.0843239e+01   1.0713886e+01   1.0618781e+01   1.0471521e+01   1.0278155e+01   1.0077815e+01   9.8411225e+00   9.5899073e+00   9.3527656e+00   9.1461872e+00   8.9962879e+00   8.8785901e+00   8.7359863e+00   8.5616887e+00   8.1170430e+00   6.6709276e+00   5.5171170e+00   4.2673092e+00   2.8740638e+00   2.2935372e+00   2.2342209e+00   2.2305418e+00   2.2313946e+00   2.2543137e+00   2.2861957e+00   2.3305882e+00   2.3915557e+00   2.4708592e+00   2.5169074e+00   2.5349455e+00   2.5306894e+00   2.5050022e+00   2.4582883e+00   2.3933518e+00   2.2066648e+00   2.1041089e+00   1.9784490e+00   1.9782939e+00   2.0392861e+00   2.0724372e+00   2.1439418e+00   2.1572402e+00   2.2165980e+00   2.2385855e+00   2.2400000e+00   2.2400000e+00   2.2094879e+00   1.7857066e+00   1.2393947e+00   1.1797421e+00   1.7389703e+00   2.1094756e+00   2.1684013e+00   2.2324274e+00   2.2400000e+00   2.2368854e+00   2.2400000e+00   2.2400000e+00   2.2380878e+00   2.1706901e+00   1.8549881e+00   1.4092917e+00   1.0496783e+00   1.2780264e+00   1.8827487e+00   2.1989414e+00   2.2331639e+00   2.2301295e+00   2.2406106e+00   2.3271335e+00   2.5025408e+00   2.7090870e+00   2.8883953e+00   3.0819243e+00   3.2359320e+00   3.4093966e+00   3.5495460e+00   3.7029816e+00   3.8669186e+00   4.0227037e+00   4.1579484e+00   4.3088339e+00   4.5270529e+00   4.7185410e+00   4.9102656e+00   5.1711639e+00   5.3913132e+00   5.5203251e+00   5.6589571e+00   5.7916892e+00   5.8875913e+00   6.0214438e+00   6.1712439e+00   6.3248007e+00   6.5054642e+00   6.7128299e+00   6.8910667e+00   7.0939694e+00   7.3124282e+00   7.5360982e+00   7.7274096e+00   7.8100149e+00   7.9034491e+00   7.9639937e+00   8.0037220e+00   8.0350642e+00   8.0534053e+00   8.0637855e+00   8.1237892e+00   8.2452295e+00   8.3604668e+00
1.5608367e+01   1.5460469e+01   1.5327086e+01   1.5162899e+01   1.5079881e+01   1.5265939e+01   1.5489274e+01   1.5561823e+01   1.5759771e+01   1.6033685e+01   1.6062792e+01   1.5863869e+01   1.5789491e+01   1.5838332e+01   1.5742985e+01   1.5511077e+01   1.5240467e+01   1.5019085e+01   1.4795047e+01   1.4653337e+01   1.4539038e+01   1.4469808e+01   1.4389913e+01   1.4300298e+01   1.4215309e+01   1.4127475e+01   1.4042316e+01   1.3971170e+01   1.3910320e+01   1.3840810e+01   1.3793706e+01   1.3727505e+01   1.3656349e+01   1.3513982e+01   1.3374189e+01   1.3188458e+01   1.2982065e+01   1.2748873e+01   1.2548974e+01   1.2308662e+01   1.2107879e+01   1.1948607e+01   1.1817763e+01   1.1661631e+01   1.1582960e+01   1.1656220e+01   1.1811987e+01   1.1854049e+01   1.1803978e+01   1.1723344e+01   1.1585756e+01   1.1425332e+01   1.1183161e+01   1.0854443e+01   1.0595603e+01   1.0412614e+01   1.0157004e+01   9.8750066e+00   9.6200077e+00   9.3889720e+00   9.1546082e+00   8.9769285e+00   8.8196298e+00   8.7521517e+00   8.6233704e+00   8.4500217e+00   8.2147877e+00   7.8147221e+00   7.0340749e+00   6.2021744e+00   5.6930144e+00   4.8722545e+00   3.3280005e+00   2.5915824e+00   2.4330604e+00   2.4302637e+00   2.5067519e+00   2.5822096e+00   2.5745191e+00   2.5437204e+00   2.4879745e+00   2.4263788e+00   2.4424269e+00   2.4656108e+00   2.4074621e+00   2.3373948e+00   2.2972666e+00   2.2762546e+00   2.2663944e+00   2.2244321e+00   2.2062836e+00   2.2340309e+00   2.2378637e+00   2.2398180e+00   2.2401580e+00   2.2399940e+00   2.2310000e+00   2.0771029e+00   2.0535027e+00   2.0297659e+00   1.2833242e+00   1.1594178e+00   1.6047408e+00   2.0171411e+00   2.0974490e+00   2.2218003e+00   2.2400000e+00   2.2400000e+00   2.2418787e+00   2.2400000e+00   2.2389929e+00   2.1602830e+00   1.8402195e+00   1.2716823e+00   1.0517004e+00   1.5313295e+00   1.9044576e+00   2.1643761e+00   2.2388776e+00   2.2398111e+00   2.2367908e+00   2.2509041e+00   2.2964284e+00   2.4140719e+00   2.6335797e+00   2.8616721e+00   3.0915491e+00   3.2602801e+00   3.4451138e+00   3.6198952e+00   3.8183521e+00   3.9849396e+00   4.1597721e+00   4.3278291e+00   4.4682047e+00   4.6381178e+00   4.8527453e+00   5.0361831e+00   5.2355567e+00   5.4312616e+00   5.5801683e+00   5.7315473e+00   5.8693478e+00   5.9735562e+00   6.1205763e+00   6.2731130e+00   6.4281700e+00   6.5995748e+00   6.7570105e+00   6.9258165e+00   7.1760014e+00   7.3262324e+00   7.4658494e+00   7.5840359e+00   7.6472215e+00   7.7388817e+00   7.7920996e+00   7.8244214e+00   7.8687905e+00   7.9516372e+00   8.0353956e+00   8.1521526e+00   8.2844758e+00   8.3981863e+00
1.5931215e+01   1.5672084e+01   1.5466050e+01   1.5328603e+01   1.5401016e+01   1.5960509e+01   1.5589669e+01   1.5365156e+01   1.5463738e+01   1.5684477e+01   1.5764749e+01   1.5609061e+01   1.5479510e+01   1.5462229e+01   1.5528342e+01   1.5537602e+01   1.5362330e+01   1.5116395e+01   1.4910942e+01   1.4729157e+01   1.4628591e+01   1.4566188e+01   1.4513102e+01   1.4444802e+01   1.4359045e+01   1.4225819e+01   1.4091196e+01   1.3974252e+01   1.3865984e+01   1.3805002e+01   1.3718299e+01   1.3622157e+01   1.3524404e+01   1.3403921e+01   1.3211503e+01   1.2969621e+01   1.2706129e+01   1.2483397e+01   1.2272511e+01   1.2053132e+01   1.1826560e+01   1.1655286e+01   1.1518606e+01   1.1386494e+01   1.1313514e+01   1.1316661e+01   1.1509933e+01   1.1646048e+01   1.1624099e+01   1.1528251e+01   1.1405227e+01   1.1256928e+01   1.1079616e+01   1.0766432e+01   1.0449290e+01   1.0212699e+01   9.8987925e+00   9.5792507e+00   9.2342899e+00   8.9416269e+00   8.6605177e+00   8.4500004e+00   8.2884610e+00   8.2484507e+00   8.1831552e+00   7.9811075e+00   7.6802617e+00   7.2575232e+00   6.6200359e+00   5.9451794e+00   5.4565302e+00   5.0525973e+00   4.3825998e+00   3.6216976e+00   3.1865334e+00   3.0049265e+00   2.9059364e+00   2.7796293e+00   2.6241244e+00   2.4497129e+00   2.3084669e+00   2.2758374e+00   2.2806613e+00   2.3002525e+00   2.2869452e+00   2.2679426e+00   2.2495377e+00   2.2425031e+00   2.2409995e+00   2.2401683e+00   2.2377155e+00   2.2400000e+00   2.2400000e+00   2.2400000e+00   2.2404753e+00   2.2089450e+00   1.8517285e+00   1.2806322e+00   1.2208547e+00   1.2722859e+00   1.3635247e+00   1.7407564e+00   2.0559665e+00   2.0469643e+00   2.0939326e+00   2.2266938e+00   2.2400000e+00   2.2400000e+00   2.2378398e+00   2.2395221e+00   2.1838237e+00   1.8719024e+00   1.2659452e+00   1.0591268e+00   1.6129642e+00   2.0711749e+00   2.2218480e+00   2.2357655e+00   2.2399863e+00   2.2400000e+00   2.2447669e+00   2.3284651e+00   2.4589918e+00   2.5453327e+00   2.7054027e+00   2.8919682e+00   3.0807556e+00   3.3088933e+00   3.5309944e+00   3.7428457e+00   3.9151900e+00   4.0810298e+00   4.2503031e+00   4.4169428e+00   4.5682473e+00   4.7295704e+00   4.8904638e+00   5.0932559e+00   5.2582973e+00   5.4530090e+00   5.6043595e+00   5.7833724e+00   5.9421348e+00   6.0855426e+00   6.2068769e+00   6.3269466e+00   6.4573024e+00   6.6015366e+00   6.7877214e+00   6.9976455e+00   7.1444663e+00   7.2536822e+00   7.4014900e+00   7.4795571e+00   7.5516304e+00   7.6358959e+00   7.7063422e+00   7.7660004e+00   7.8591912e+00   7.9659305e+00   8.0780549e+00   8.2170198e+00   8.3486619e+00   8.4482327e+00
1.6163509e+01   1.5900840e+01   1.5595021e+01   1.5581834e+01   1.5769310e+01   1.6015747e+01   1.5383315e+01   1.5174606e+01   1.5225476e+01   1.5413705e+01   1.5520004e+01   1.5500545e+01   1.5431134e+01   1.5362447e+01   1.5353108e+01   1.5411144e+01   1.5322629e+01   1.5138149e+01   1.4982314e+01   1.4860192e+01   1.4780845e+01   1.4700107e+01   1.4623757e+01   1.4544673e+01   1.4466793e+01   1.4343243e+01   1.4179053e+01   1.4045929e+01   1.3933389e+01   1.3813079e+01   1.3681259e+01   1.3552363e+01   1.3424146e+01   1.3276471e+01   1.3042735e+01   1.2779113e+01   1.2513010e+01   1.2303619e+01   1.2090302e+01   1.1901521e+01   1.1668704e+01   1.1462507e+01   1.1272237e+01   1.1155429e+01   1.1080426e+01   1.1062245e+01   1.1190428e+01   1.1384625e+01   1.1382670e+01   1.1279394e+01   1.1133262e+01   1.0962100e+01   1.0787962e+01   1.0556660e+01   1.0277943e+01   9.9887949e+00   9.6764444e+00   9.4024863e+00   9.0489495e+00   8.6906305e+00   8.3857332e+00   8.1056657e+00   7.8898346e+00   7.7685175e+00   7.6566056e+00   7.4960755e+00   7.1891180e+00   6.7484888e+00   6.1885235e+00   5.6383802e+00   5.1507198e+00   4.6932192e+00   4.3774818e+00   3.9134367e+00   3.4665761e+00   3.1853843e+00   2.9377900e+00   2.6561011e+00   2.3889012e+00   2.2607999e+00   2.2409419e+00   2.2356177e+00   2.2400000e+00   2.2400000e+00   2.2400000e+00   2.2420009e+00   2.2401740e+00   2.2400000e+00   2.2400000e+00   2.2399803e+00   2.2369431e+00   2.2342144e+00   2.2176445e+00   2.1489065e+00   1.9185531e+00   1.5544704e+00   1.1973124e+00   1.1466173e+00   1.2275884e+00   1.5538057e+00   2.0972463e+00   2.2301228e+00   2.1703971e+00   2.0682454e+00   2.0471520e+00   2.1458197e+00   2.2361199e+00   2.2400000e+00   2.2365067e+00   2.2040331e+00   1.9242263e+00   1.3415863e+00   1.0431984e+00   1.5931065e+00   2.0762498e+00   2.2312853e+00   2.2399863e+00   2.2369479e+00   2.2400000e+00   2.2400000e+00   2.2384628e+00   2.3020401e+00   2.4616027e+00   2.6362693e+00   2.7778323e+00   2.9361232e+00   3.1416764e+00   3.3456408e+00   3.5356389e+00   3.7514013e+00   3.9626870e+00   4.1219324e+00   4.3178107e+00   4.4835372e+00   4.6511396e+00   4.8081068e+00   4.9641361e+00   5.1361032e+00   5.3188247e+00   5.4820229e+00   5.6432756e+00   5.8155204e+00   5.9703629e+00   6.1285661e+00   6.2698222e+00   6.3731637e+00   6.5161878e+00   6.6609685e+00   6.8252009e+00   6.9758582e+00   7.0804487e+00   7.2254489e+00   7.3522526e+00   7.4260337e+00   7.5050491e+00   7.6097547e+00   7.6912132e+00   7.7957914e+00   7.9116387e+00   8.0498517e+00   8.1907501e+00   8.3160374e+00   8.4277266e+00   8.5112649e+00
1.6288198e+01   1.6082074e+01   1.5751879e+01   1.5664089e+01   1.5688047e+01   1.5553860e+01   1.5296211e+01   1.5288641e+01   1.5298734e+01   1.5291877e+01   1.5346720e+01   1.5470274e+01   1.5525870e+01   1.5504170e+01   1.5435391e+01   1.5394532e+01   1.5369398e+01   1.5293079e+01   1.5177650e+01   1.5028193e+01   1.4914339e+01   1.4816828e+01   1.4729867e+01   1.4628593e+01   1.4531910e+01   1.4437272e+01   1.4296662e+01   1.4155894e+01   1.4009063e+01   1.3850604e+01   1.3686097e+01   1.3540096e+01   1.3354376e+01   1.3128885e+01   1.2908969e+01   1.2671245e+01   1.2486595e+01   1.2262985e+01   1.2044968e+01   1.1812442e+01   1.1582474e+01   1.1370322e+01   1.1155080e+01   1.0980153e+01   1.0888378e+01   1.0856232e+01   1.0833199e+01   1.0952531e+01   1.1025592e+01   1.0962876e+01   1.0829132e+01   1.0689707e+01   1.0495685e+01   1.0287433e+01   1.0025826e+01   9.7755251e+00   9.5035870e+00   9.2498961e+00   8.9744024e+00   8.7128664e+00   8.3992430e+00   8.0771293e+00   7.7933715e+00   7.5282049e+00   7.2844820e+00   7.0614592e+00   6.7922914e+00   6.4479193e+00   6.1026426e+00   5.7539704e+00   5.3420659e+00   4.7901685e+00   4.1822627e+00   3.6723791e+00   3.3309283e+00   3.0358878e+00   2.6941577e+00   2.3766527e+00   2.2503581e+00   2.2400275e+00   2.2400000e+00   2.2377629e+00   2.2400000e+00   2.2400000e+00   2.2400000e+00   2.2388770e+00   2.2399023e+00   2.2400000e+00   2.2400000e+00   2.2376984e+00   1.9630101e+00   1.6042085e+00   1.5248019e+00   1.2996113e+00   1.2113152e+00   1.2762528e+00   1.4756547e+00   1.7159463e+00   2.0431877e+00   2.2056047e+00   2.2394733e+00   2.2397579e+00   2.2281020e+00   2.1802894e+00   2.1399231e+00   2.1308639e+00   2.2182616e+00   2.2399803e+00   2.2191166e+00   1.9928117e+00   1.4510707e+00   9.9644650e-01   1.5297701e+00   2.0299385e+00   2.2247314e+00   2.2399863e+00   2.2400000e+00   2.2376682e+00   2.2400197e+00   2.2409004e+00   2.2501085e+00   2.3513752e+00   2.4855408e+00   2.6606934e+00   2.8204133e+00   3.0001353e+00   3.1630198e+00   3.3817631e+00   3.6117926e+00   3.8215859e+00   4.0162985e+00   4.1775458e+00   4.3482926e+00   4.5530640e+00   4.7141441e+00   4.8819683e+00   5.0375575e+00   5.1991630e+00   5.3813725e+00   5.5352394e+00   5.6840225e+00   5.8314866e+00   5.9987640e+00   6.1525565e+00   6.2889703e+00   6.4161414e+00   6.5648665e+00   6.6921566e+00   6.8316002e+00   6.9702127e+00   7.0847337e+00   7.2019453e+00   7.3103698e+00   7.3879907e+00   7.4976204e+00   7.6141719e+00   7.7348885e+00   7.8704959e+00   8.0190154e+00   8.1642910e+00   8.2939195e+00   8.4058508e+00   8.5024933e+00   8.5863602e+00
1.6340242e+01   1.6318428e+01   1.5857479e+01   1.5692816e+01   1.5584238e+01   1.5585909e+01   1.5637073e+01   1.6116426e+01   1.5396959e+01   1.5017696e+01   1.5284032e+01   1.5570976e+01   1.5764645e+01   1.5716316e+01   1.5572957e+01   1.5478595e+01   1.5478982e+01   1.5495315e+01   1.5463540e+01   1.5279466e+01   1.5066099e+01   1.4877140e+01   1.4801459e+01   1.4701688e+01   1.4592720e+01   1.4507618e+01   1.4383811e+01   1.4221976e+01   1.4041505e+01   1.3864793e+01   1.3683753e+01   1.3496096e+01   1.3317505e+01   1.3085601e+01   1.2854510e+01   1.2627791e+01   1.2412783e+01   1.2214400e+01   1.2029737e+01   1.1802697e+01   1.1618200e+01   1.1447578e+01   1.1209266e+01   1.0968102e+01   1.0793688e+01   1.0694949e+01   1.0586060e+01   1.0575596e+01   1.0604513e+01   1.0535232e+01   1.0474798e+01   1.0338918e+01   1.0180401e+01   1.0015469e+01   9.7701557e+00   9.5110367e+00   9.3463242e+00   9.1875033e+00   8.9970939e+00   8.7729041e+00   8.5379990e+00   8.2152962e+00   7.8102187e+00   7.3943941e+00   7.0137956e+00   6.6772314e+00   6.4108686e+00   6.1539246e+00   5.8565114e+00   5.5865891e+00   5.2073287e+00   4.5947048e+00   3.7835458e+00   3.1027730e+00   2.7448599e+00   2.5498744e+00   2.3832312e+00   2.2527812e+00   2.2400000e+00   2.2400000e+00   2.2400000e+00   2.2410636e+00   2.2400000e+00   2.2400000e+00   2.2400000e+00   2.2354064e+00   2.2396005e+00   2.2400000e+00   2.2400000e+00   2.2375529e+00   1.9474673e+00   1.4394773e+00   1.4306730e+00   1.6663748e+00   1.9326424e+00   2.1232110e+00   2.2065794e+00   2.2353210e+00   2.2398042e+00   2.2390605e+00   2.2400000e+00   2.2400000e+00   2.2400000e+00   2.2341197e+00   2.2322746e+00   2.2271065e+00   2.2357974e+00   2.2321068e+00   2.0704867e+00   1.5438586e+00   1.0028275e+00   1.4142549e+00   1.9849526e+00   2.2217026e+00   2.2399779e+00   2.2411983e+00   2.2417117e+00   2.2481748e+00   2.2747994e+00   2.3229021e+00   2.3918343e+00   2.4980020e+00   2.6288092e+00   2.7590053e+00   2.9093052e+00   3.0412965e+00   3.2229374e+00   3.3900977e+00   3.6248941e+00   3.8952203e+00   4.0977483e+00   4.2784286e+00   4.4473687e+00   4.6014333e+00   4.7665874e+00   4.9280517e+00   5.1114820e+00   5.2644595e+00   5.4286292e+00   5.5830958e+00   5.7181574e+00   5.8759584e+00   6.0102459e+00   6.1642075e+00   6.3118052e+00   6.4703176e+00   6.5953858e+00   6.7207924e+00   6.8553827e+00   6.9745938e+00   7.1027248e+00   7.1986521e+00   7.3142679e+00   7.4158789e+00   7.5228852e+00   7.6365994e+00   7.7623151e+00   7.9170245e+00   8.0846146e+00   8.2556826e+00   8.3973716e+00   8.4786341e+00   8.5608244e+00   8.6361474e+00
1.6094752e+01   1.6062500e+01   1.5736522e+01   1.5616218e+01   1.5558271e+01   1.5358417e+01   1.5279418e+01   1.5418574e+01   1.4997279e+01   1.4838703e+01   1.5277636e+01   1.6057159e+01   1.6173975e+01   1.5708267e+01   1.5453300e+01   1.5447939e+01   1.5510665e+01   1.5564090e+01   1.5636416e+01   1.5574232e+01   1.5346994e+01   1.5060055e+01   1.4852617e+01   1.4733171e+01   1.4630522e+01   1.4542130e+01   1.4412751e+01   1.4258807e+01   1.4047797e+01   1.3842855e+01   1.3666540e+01   1.3442209e+01   1.3215512e+01   1.2983260e+01   1.2762092e+01   1.2580158e+01   1.2401410e+01   1.2172813e+01   1.1973317e+01   1.1807845e+01   1.1595811e+01   1.1381384e+01   1.1152212e+01   1.0937010e+01   1.0721969e+01   1.0488481e+01   1.0314808e+01   1.0238664e+01   1.0178356e+01   1.0094825e+01   1.0087654e+01   9.9622481e+00   9.7830264e+00   9.6407785e+00   9.4622077e+00   9.2710719e+00   9.0702263e+00   8.9587720e+00   8.8405436e+00   8.6343361e+00   8.3986240e+00   8.0885857e+00   7.6915613e+00   7.1785034e+00   6.7132586e+00   6.3495074e+00   6.0906417e+00   5.7772632e+00   5.4741123e+00   5.1965199e+00   4.8135735e+00   4.1661289e+00   3.3110697e+00   2.5742732e+00   2.2805792e+00   2.2472020e+00   2.2362273e+00   2.2396005e+00   2.2400000e+00   2.2400000e+00   2.2399606e+00   2.2362547e+00   2.2235793e+00   2.2215853e+00   2.2337953e+00   2.2370760e+00   2.2385259e+00   2.2399233e+00   2.2429816e+00   2.2606375e+00   2.2846595e+00   2.2165389e+00   2.1974935e+00   2.2340285e+00   2.2414513e+00   2.2401591e+00   2.2400000e+00   2.2400000e+00   2.2400000e+00   2.2368385e+00   2.2400000e+00   2.2400000e+00   2.2400000e+00   2.2359548e+00   2.2396482e+00   2.2399803e+00   2.2239893e+00   2.0585801e+00   1.6358441e+00   1.0373096e+00   1.2947880e+00   1.9090689e+00   2.2083228e+00   2.2743821e+00   2.2986360e+00   2.3276323e+00   2.3633475e+00   2.3975166e+00   2.4673201e+00   2.5357582e+00   2.6165439e+00   2.7037179e+00   2.8014544e+00   2.9105347e+00   3.0220321e+00   3.1407520e+00   3.3006614e+00   3.4890322e+00   3.7182637e+00   3.9390795e+00   4.1688573e+00   4.3365091e+00   4.5101546e+00   4.6610377e+00   4.8259297e+00   4.9906672e+00   5.1596962e+00   5.3220555e+00   5.4783439e+00   5.6176817e+00   5.7549728e+00   5.8938543e+00   6.0327401e+00   6.1852436e+00   6.3429167e+00   6.5029966e+00   6.6266297e+00   6.7394122e+00   6.8882730e+00   7.0088353e+00   7.1241814e+00   7.2154646e+00   7.3306322e+00   7.4471682e+00   7.5623732e+00   7.6725748e+00   7.8063127e+00   7.9715920e+00   8.1126451e+00   8.2377053e+00   8.3506473e+00   8.4410071e+00   8.5562439e+00   8.6777274e+00
1.5897694e+01   1.5712454e+01   1.5477486e+01   1.5377285e+01   1.5336032e+01   1.5517312e+01   1.5079284e+01   1.5080106e+01   1.5315915e+01   1.4822008e+01   1.5040604e+01   1.7004738e+01   1.6228812e+01   1.5308038e+01   1.4984890e+01   1.5102940e+01   1.5342473e+01   1.5482133e+01   1.5578167e+01   1.5644985e+01   1.5619179e+01   1.5451296e+01   1.5147438e+01   1.4817390e+01   1.4643610e+01   1.4560289e+01   1.4410345e+01   1.4233488e+01   1.4051153e+01   1.3821909e+01   1.3596124e+01   1.3340422e+01   1.3091140e+01   1.2873283e+01   1.2686895e+01   1.2542743e+01   1.2381375e+01   1.2174631e+01   1.1994499e+01   1.1813061e+01   1.1594605e+01   1.1382440e+01   1.1138559e+01   1.0884278e+01   1.0534129e+01   1.0178873e+01   9.9334833e+00   9.7604715e+00   9.6714839e+00   9.6563441e+00   9.7013749e+00   9.6492231e+00   9.4831331e+00   9.3575553e+00   9.1768825e+00   8.9643063e+00   8.7132860e+00   8.5701157e+00   8.5478413e+00   8.5491421e+00   8.3245547e+00   7.8921334e+00   7.3897077e+00   6.8491621e+00   6.3915063e+00   6.0338527e+00   5.7230291e+00   5.4400816e+00   5.1356530e+00   4.8244548e+00   4.4304060e+00   3.7070570e+00   2.9603830e+00   2.4175218e+00   2.2412707e+00   2.2400000e+00   2.2369334e+00   2.2397333e+00   2.2393888e+00   2.2304639e+00   2.1915032e+00   2.1173883e+00   2.0379294e+00   2.0001810e+00   2.0992680e+00   2.1536557e+00   2.1658612e+00   2.2319916e+00   2.3500793e+00   2.3750061e+00   2.3386964e+00   2.2897247e+00   2.2402101e+00   2.2400000e+00   2.2421016e+00   2.2401828e+00   2.2400000e+00   2.2400000e+00   2.2400000e+00   2.2383264e+00   2.2400000e+00   2.2400000e+00   2.2400000e+00   2.2400000e+00   2.2399606e+00   2.2261911e+00   2.0220730e+00   1.5056558e+00   1.0600393e+00   1.2003035e+00   1.8028038e+00   2.1752792e+00   2.3197825e+00   2.4033669e+00   2.4723899e+00   2.5379127e+00   2.5964446e+00   2.6661918e+00   2.7060278e+00   2.7863842e+00   2.8487259e+00   2.9256672e+00   3.0084622e+00   3.1031261e+00   3.2022745e+00   3.3356814e+00   3.5053575e+00   3.6450319e+00   3.8108964e+00   3.9951425e+00   4.1720666e+00   4.3348633e+00   4.5254883e+00   4.7019359e+00   4.8743383e+00   5.0381747e+00   5.2010352e+00   5.3570895e+00   5.4973699e+00   5.6367530e+00   5.7815692e+00   5.9222331e+00   6.0797636e+00   6.2204244e+00   6.3384773e+00   6.5002187e+00   6.6432671e+00   6.7627861e+00   6.8868840e+00   7.0152200e+00   7.1286566e+00   7.2388010e+00   7.3651493e+00   7.4784979e+00   7.6019510e+00   7.7200043e+00   7.8220223e+00   7.9687818e+00   8.0972293e+00   8.1929627e+00   8.3224255e+00   8.4317429e+00   8.5333923e+00   8.6775527e+00
1.5854244e+01   1.5592839e+01   1.5464322e+01   1.5454526e+01   1.5426549e+01   1.5601137e+01   1.5201821e+01   1.4897794e+01   1.5185533e+01   1.5541312e+01   1.4923081e+01   1.5323588e+01   1.5249731e+01   1.4845937e+01   1.4360341e+01   1.4509355e+01   1.5054131e+01   1.5354617e+01   1.5372146e+01   1.5410820e+01   1.5514174e+01   1.5535537e+01   1.5392960e+01   1.5045728e+01   1.4684564e+01   1.4534058e+01   1.4411061e+01   1.4189092e+01   1.3986150e+01   1.3769130e+01   1.3533234e+01   1.3277236e+01   1.3033878e+01   1.2805574e+01   1.2623959e+01   1.2479766e+01   1.2312394e+01   1.2164892e+01   1.2029349e+01   1.1871822e+01   1.1712528e+01   1.1537576e+01   1.1327347e+01   1.0984939e+01   1.0378596e+01   9.6543077e+00   9.1920523e+00   9.0378073e+00   9.1589744e+00   9.3052214e+00   9.3672284e+00   9.3631459e+00   9.2763274e+00   9.1529598e+00   8.9555720e+00   8.6990753e+00   8.4490101e+00   8.2081965e+00   8.1277992e+00   8.2213664e+00   8.1007038e+00   7.6246079e+00   6.9824377e+00   6.3925590e+00   5.9673090e+00   5.6073794e+00   5.3202393e+00   5.0873336e+00   4.8984542e+00   4.5832652e+00   4.0889375e+00   3.4524360e+00   2.8774668e+00   2.4817466e+00   2.2580129e+00   2.2398488e+00   2.2363319e+00   2.2126155e+00   2.1542992e+00   2.0630636e+00   1.9581368e+00   1.8549512e+00   1.7896032e+00   1.7370904e+00   1.8839705e+00   2.0258577e+00   2.1068247e+00   2.2266154e+00   2.3440340e+00   2.2091142e+00   2.0927650e+00   2.0557375e+00   2.1323284e+00   2.1992391e+00   2.2301514e+00   2.2397023e+00   2.2400000e+00   2.2400000e+00   2.2400000e+00   2.2335053e+00   2.2400000e+00   2.2400000e+00   2.2400000e+00   2.2417462e+00   2.2154035e+00   1.9827288e+00   1.4476457e+00   9.5000198e-01   1.0447691e+00   1.6197936e+00   2.1141173e+00   2.2985792e+00   2.4047474e+00   2.4972121e+00   2.5997073e+00   2.6697820e+00   2.7495450e+00   2.8194628e+00   2.8987964e+00   2.9765807e+00   3.0535286e+00   3.1339533e+00   3.2121035e+00   3.2980249e+00   3.4008805e+00   3.5120869e+00   3.6422750e+00   3.8268243e+00   3.9787413e+00   4.1018982e+00   4.2399765e+00   4.3879676e+00   4.5409640e+00   4.7387190e+00   4.8965805e+00   5.0660117e+00   5.2339046e+00   5.3770689e+00   5.5171719e+00   5.6627691e+00   5.8016910e+00   5.9605641e+00   6.1047786e+00   6.2209314e+00   6.3611608e+00   6.5014153e+00   6.6179581e+00   6.7524197e+00   6.8875277e+00   7.0132816e+00   7.1474546e+00   7.2843608e+00   7.4145961e+00   7.5352606e+00   7.6536181e+00   7.7451299e+00   7.8506986e+00   7.9801485e+00   8.0884595e+00   8.2353950e+00   8.3747901e+00   8.4691939e+00   8.5781931e+00   8.6844258e+00
1.5980762e+01   1.5961230e+01   1.6159046e+01   1.6031196e+01   1.5672563e+01   1.5633114e+01   1.5446753e+01   1.4836031e+01   1.4626917e+01   1.5039868e+01   1.4800126e+01   1.4463814e+01   1.4470817e+01   1.4507238e+01   1.4074306e+01   1.4107742e+01   1.4951792e+01   1.5237952e+01   1.4951249e+01   1.4934005e+01   1.4947996e+01   1.5040163e+01   1.5142590e+01   1.4990970e+01   1.4640156e+01   1.4458241e+01   1.4358514e+01   1.4174066e+01   1.3953781e+01   1.3729396e+01   1.3503892e+01   1.3287575e+01   1.3041149e+01   1.2740225e+01   1.2492322e+01   1.2323898e+01   1.2201270e+01   1.2102965e+01   1.2004087e+01   1.1918167e+01   1.1804887e+01   1.1649476e+01   1.1473462e+01   1.1089870e+01   1.0201091e+01   9.0751741e+00   8.5221996e+00   8.4443793e+00   8.7226829e+00   8.9832892e+00   9.0742999e+00   9.0884232e+00   9.0920751e+00   9.0051479e+00   8.8611669e+00   8.6209550e+00   8.3114436e+00   7.9938425e+00   7.7828504e+00   7.6813536e+00   7.4968568e+00   7.0043356e+00   6.3801489e+00   5.8414545e+00   5.4816583e+00   5.2304718e+00   4.9994072e+00   4.8183574e+00   4.6291186e+00   4.3259720e+00   3.8698263e+00   3.3716237e+00   2.9095278e+00   2.5882908e+00   2.3632934e+00   2.2236104e+00   2.1110614e+00   1.9852694e+00   1.8020845e+00   1.7264555e+00   1.6951391e+00   1.6056073e+00   1.5424074e+00   1.5183050e+00   1.6589354e+00   1.7055457e+00   1.8530143e+00   1.9959767e+00   1.7993633e+00   1.4038725e+00   1.1443197e+00   1.1900496e+00   1.3610103e+00   1.6482310e+00   1.9492428e+00   2.1479636e+00   2.2048655e+00   2.2257586e+00   2.2323623e+00   2.2347149e+00   2.2379091e+00   2.2377011e+00   2.2354297e+00   2.1977240e+00   1.9404477e+00   1.4228312e+00   9.6288462e-01   1.0588227e+00   1.5984595e+00   2.0437431e+00   2.2253675e+00   2.2969267e+00   2.3785240e+00   2.4650549e+00   2.5657679e+00   2.6792704e+00   2.7936385e+00   2.8989461e+00   2.9973499e+00   3.0776398e+00   3.1658452e+00   3.2689902e+00   3.3597503e+00   3.4338967e+00   3.5013928e+00   3.6249675e+00   3.7879013e+00   3.9468657e+00   4.0917873e+00   4.2147112e+00   4.3185629e+00   4.4384942e+00   4.5958935e+00   4.7528221e+00   4.9164409e+00   5.0809859e+00   5.2383482e+00   5.3888385e+00   5.5440038e+00   5.6681664e+00   5.8236818e+00   5.9483851e+00   6.0940974e+00   6.2190925e+00   6.3394523e+00   6.4854512e+00   6.6150739e+00   6.7306799e+00   6.8537675e+00   7.0077350e+00   7.1607760e+00   7.2909027e+00   7.4342735e+00   7.5749282e+00   7.6888725e+00   7.7886821e+00   7.8999251e+00   8.0115515e+00   8.1161756e+00   8.2419472e+00   8.3753197e+00   8.4991012e+00   8.6196716e+00   8.7552157e+00
1.6102546e+01   1.7073723e+01   1.7689402e+01   1.6750795e+01   1.6052592e+01   1.5865116e+01   1.5800460e+01   1.5334351e+01   1.4572241e+01   1.4465214e+01   1.4601596e+01   1.4532689e+01   1.4430023e+01   1.4155172e+01   1.4420750e+01   1.4645006e+01   1.4683489e+01   1.4490382e+01   1.4478803e+01   1.4599787e+01   1.4239674e+01   1.4176617e+01   1.4450214e+01   1.4518283e+01   1.4257847e+01   1.4088779e+01   1.4140649e+01   1.4064875e+01   1.3871217e+01   1.3664218e+01   1.3436868e+01   1.3198873e+01   1.2925340e+01   1.2628719e+01   1.2384811e+01   1.2155944e+01   1.2012806e+01   1.1916906e+01   1.1880604e+01   1.1849034e+01   1.1779965e+01   1.1643429e+01   1.1402500e+01   1.0945097e+01   9.9519671e+00   8.8124792e+00   8.2892606e+00   8.1505368e+00   8.4029503e+00   8.6775387e+00   8.7760394e+00   8.8107077e+00   8.8164026e+00   8.8262941e+00   8.7777765e+00   8.6537414e+00   8.4081952e+00   8.0992647e+00   7.7216777e+00   7.3226327e+00   6.9153268e+00   6.4267950e+00   5.9199221e+00   5.4398718e+00   5.1755133e+00   4.9829785e+00   4.7939083e+00   4.6167686e+00   4.4131329e+00   4.1462331e+00   3.7869102e+00   3.3994817e+00   3.0524748e+00   2.7080776e+00   2.3934526e+00   2.1200330e+00   1.8991582e+00   1.6998982e+00   1.4423277e+00   1.2999506e+00   1.2543043e+00   1.3531196e+00   1.3487747e+00   1.2977957e+00   1.3521994e+00   1.3722889e+00   1.4958982e+00   1.4378115e+00   1.0735282e+00   9.4387400e-01   1.1396610e+00   1.1295200e+00   9.9002111e-01   9.3620150e-01   1.1344272e+00   1.3984436e+00   1.6093408e+00   1.7800153e+00   1.8726907e+00   1.9041761e+00   1.9180624e+00   1.9194698e+00   1.8781481e+00   1.6814549e+00   1.2750080e+00   9.4744837e-01   1.1058908e+00   1.5642591e+00   1.9436870e+00   2.1148336e+00   2.1824979e+00   2.2382759e+00   2.2952761e+00   2.4124452e+00   2.5241362e+00   2.6414780e+00   2.7575111e+00   2.8776223e+00   3.0021306e+00   3.1241668e+00   3.2168360e+00   3.2960205e+00   3.3628610e+00   3.4635420e+00   3.6015844e+00   3.7399622e+00   3.8845816e+00   4.0075318e+00   4.1357495e+00   4.2597084e+00   4.3922843e+00   4.5283612e+00   4.6367386e+00   4.7854545e+00   4.9296822e+00   5.0836706e+00   5.2356639e+00   5.3847438e+00   5.5424206e+00   5.6599101e+00   5.7966656e+00   5.9192194e+00   6.0542558e+00   6.1822142e+00   6.3272090e+00   6.4710039e+00   6.6003260e+00   6.7057030e+00   6.8355102e+00   6.9681669e+00   7.1292050e+00   7.2924109e+00   7.4482126e+00   7.5908767e+00   7.7246680e+00   7.8456055e+00   7.9543642e+00   8.0693359e+00   8.1913784e+00   8.3160767e+00   8.4224458e+00   8.5400633e+00   8.6701894e+00   8.8000985e+00
1.5911560e+01   1.7824108e+01   1.8323968e+01   1.7482809e+01   1.6505452e+01   1.5811954e+01   1.5847893e+01   1.5826629e+01   1.5151775e+01   1.4352019e+01   1.4290519e+01   1.4390627e+01   1.4413831e+01   1.3988082e+01   1.5066352e+01   1.5797363e+01   1.4086686e+01   1.3816243e+01   1.4300524e+01   1.4413275e+01   1.3851546e+01   1.3654775e+01   1.3797820e+01   1.3951362e+01   1.3824525e+01   1.3642618e+01   1.3661389e+01   1.3779012e+01   1.3730690e+01   1.3545380e+01   1.3305052e+01   1.3066016e+01   1.2835529e+01   1.2574085e+01   1.2301717e+01   1.2032605e+01   1.1812752e+01   1.1664250e+01   1.1603023e+01   1.1619609e+01   1.1652787e+01   1.1571159e+01   1.1406443e+01   1.0888112e+01   9.9563333e+00   9.1085749e+00   8.6116690e+00   8.1888598e+00   7.9045145e+00   8.2228119e+00   8.4903166e+00   8.4265038e+00   8.3994834e+00   8.5075307e+00   8.6253430e+00   8.6781668e+00   8.5279449e+00   8.2866402e+00   7.7491921e+00   7.0007796e+00   6.4396634e+00   6.0582889e+00   5.8690958e+00   5.6136681e+00   5.2755198e+00   4.9897061e+00   4.7067581e+00   4.4844280e+00   4.2538893e+00   3.9959273e+00   3.7031134e+00   3.3718671e+00   3.0113729e+00   2.6243392e+00   2.2702890e+00   1.9592146e+00   1.6940136e+00   1.3911431e+00   1.0385186e+00   9.0931629e-01   8.4881942e-01   7.6334993e-01   8.7582810e-01   9.1780761e-01   9.3783262e-01   1.0674228e+00   1.1691048e+00   9.7974745e-01   9.7961030e-01   1.4439575e+00   1.9025730e+00   1.9750150e+00   1.7767905e+00   1.4186425e+00   1.1194267e+00   9.9226260e-01   9.5240374e-01   9.8425690e-01   1.0165361e+00   1.0477852e+00   1.0393307e+00   1.0358244e+00   1.0254363e+00   9.6278373e-01   9.3538026e-01   1.1993263e+00   1.6037599e+00   1.8705937e+00   1.9692198e+00   2.0600591e+00   2.1442721e+00   2.2237671e+00   2.2670753e+00   2.3780931e+00   2.4936345e+00   2.6135837e+00   2.7385952e+00   2.8588520e+00   2.9568663e+00   3.0577075e+00   3.1690043e+00   3.3143066e+00   3.4414030e+00   3.5443201e+00   3.6659513e+00   3.7749379e+00   3.9074402e+00   4.0312964e+00   4.1689806e+00   4.3096097e+00   4.4510909e+00   4.5809057e+00   4.6942554e+00   4.7993368e+00   4.9288583e+00   5.0620148e+00   5.2189438e+00   5.3610668e+00   5.4917930e+00   5.6102227e+00   5.7428864e+00   5.8739991e+00   6.0215410e+00   6.1664012e+00   6.3308273e+00   6.4526981e+00   6.5317602e+00   6.6463887e+00   6.7624639e+00   6.9238543e+00   7.0919559e+00   7.2953841e+00   7.4808764e+00   7.6193834e+00   7.7714687e+00   7.9045712e+00   8.0436632e+00   8.1702005e+00   8.2962311e+00   8.4095616e+00   8.5132875e+00   8.6114086e+00   8.7245642e+00   8.8439737e+00
1.3394519e+01   1.5647518e+01   1.7385516e+01   1.8074631e+01   1.6595740e+01   1.5907460e+01   1.5757583e+01   1.5733109e+01   1.4967194e+01   1.4565683e+01   1.3993499e+01   1.4500138e+01   1.4734202e+01   1.4019538e+01   1.3877364e+01   1.3965939e+01   1.3820188e+01   1.3741035e+01   1.3922285e+01   1.3840498e+01   1.3885813e+01   1.3670105e+01   1.3533198e+01   1.3587035e+01   1.3613735e+01   1.3498241e+01   1.3409240e+01   1.3426786e+01   1.3472025e+01   1.3341343e+01   1.3111623e+01   1.2841880e+01   1.2642579e+01   1.2430017e+01   1.2171982e+01   1.1896520e+01   1.1639102e+01   1.1449396e+01   1.1318393e+01   1.1336275e+01   1.1447058e+01   1.1338909e+01   1.1121228e+01   1.0719789e+01   9.9843580e+00   9.2919380e+00   8.7978153e+00   8.3779116e+00   7.1363793e+00   6.0101531e+00   6.6373689e+00   7.2441414e+00   7.5617912e+00   7.8894312e+00   8.3542314e+00   8.5762497e+00   8.4217436e+00   8.1673754e+00   7.5387722e+00   6.6257691e+00   5.8640725e+00   5.5057922e+00   5.4244265e+00   5.3779872e+00   5.2182728e+00   4.9436346e+00   4.6171408e+00   4.3432139e+00   4.1049733e+00   3.8860695e+00   3.6730376e+00   3.3381900e+00   2.9594531e+00   2.5927006e+00   2.2316782e+00   1.9204484e+00   1.6080428e+00   1.2344846e+00   8.7473426e-01   6.8999776e-01   4.9439534e-01   3.6016064e-01   2.7558171e-01   4.1459688e-01   5.9276828e-01   5.8233599e-01   9.2576360e-01   8.8048775e-01   1.3477031e+00   1.9165117e+00   2.1162968e+00   2.1476031e+00   2.1712336e+00   2.0995908e+00   1.9829532e+00   1.8065634e+00   1.6118477e+00   1.4639942e+00   1.3854314e+00   1.3536297e+00   1.2891514e+00   1.2635343e+00   1.2662762e+00   1.3025594e+00   1.4416115e+00   1.6722965e+00   1.8724247e+00   1.9199931e+00   2.0007590e+00   2.0698889e+00   2.1385432e+00   2.2173995e+00   2.2529816e+00   2.3526636e+00   2.4659607e+00   2.5854618e+00   2.7010905e+00   2.8129722e+00   2.9310911e+00   3.0471427e+00   3.1625690e+00   3.2869366e+00   3.4431918e+00   3.5606717e+00   3.7047215e+00   3.8390348e+00   3.9668802e+00   4.1046860e+00   4.2250247e+00   4.3482958e+00   4.4662242e+00   4.5790507e+00   4.6867995e+00   4.7976836e+00   4.9047081e+00   5.0156225e+00   5.1453984e+00   5.2661493e+00   5.4007639e+00   5.5218900e+00   5.6669509e+00   5.8257326e+00   5.9823569e+00   6.1246544e+00   6.2755227e+00   6.3756890e+00   6.4530511e+00   6.5673651e+00   6.6946598e+00   6.8546151e+00   7.0579900e+00   7.2660795e+00   7.4387020e+00   7.6449029e+00   7.7972742e+00   7.9646739e+00   8.1337614e+00   8.2850860e+00   8.3957603e+00   8.4975171e+00   8.5903263e+00   8.6855832e+00   8.7787317e+00   8.8885093e+00
3.2804103e+00   1.2317356e+01   1.7066122e+01   1.6720520e+01   1.6151369e+01   1.5948794e+01   1.5714775e+01   1.5487707e+01   1.6049109e+01   1.6315868e+01   1.4353670e+01   1.3816670e+01   1.4057865e+01   1.4028966e+01   1.4089204e+01   1.3618765e+01   1.3570749e+01   1.3672223e+01   1.3692551e+01   1.3409350e+01   1.3932130e+01   1.3703716e+01   1.3493521e+01   1.3516496e+01   1.3613960e+01   1.3592142e+01   1.3423253e+01   1.3326616e+01   1.3295617e+01   1.3259579e+01   1.3151862e+01   1.2944813e+01   1.2673243e+01   1.2290764e+01   1.1943776e+01   1.1697433e+01   1.1482838e+01   1.1291621e+01   1.1141660e+01   1.1087323e+01   1.1164732e+01   1.1068917e+01   1.0760355e+01   1.0318340e+01   9.7176990e+00   9.1187389e+00   8.4778344e+00   7.6994242e+00   6.5061697e+00   5.3120875e+00   5.1384535e+00   5.7572904e+00   6.5471228e+00   7.2169401e+00   7.9192427e+00   8.2683979e+00   8.0908490e+00   7.7583265e+00   7.1973367e+00   6.4046326e+00   5.5191338e+00   5.1653509e+00   5.0366114e+00   4.9587084e+00   4.8629828e+00   4.6863102e+00   4.4433794e+00   4.1905322e+00   3.9875307e+00   3.8530794e+00   3.6626706e+00   3.2908379e+00   2.8488187e+00   2.4455829e+00   2.0661569e+00   1.7116533e+00   1.3517376e+00   8.8571815e-01   4.1321373e-01   2.6493440e-01   2.1832258e-01   2.1108312e-01   2.1064912e-01   2.1154873e-01   2.2936766e-01   5.2976561e-01   8.5428289e-01   8.6458124e-01   1.3384081e+00   1.9378169e+00   2.0499382e+00   2.0777426e+00   2.1215289e+00   2.1441670e+00   2.1623249e+00   2.1654079e+00   2.1343936e+00   2.1211264e+00   2.0381007e+00   1.9880278e+00   1.9181809e+00   1.8553438e+00   1.8189350e+00   1.8172942e+00   1.8378066e+00   1.8723801e+00   1.9284819e+00   1.9440105e+00   2.0157865e+00   2.0539991e+00   2.1335304e+00   2.1917644e+00   2.2418528e+00   2.3085431e+00   2.4237922e+00   2.5478840e+00   2.6655207e+00   2.7964084e+00   2.9295507e+00   3.0456768e+00   3.1601308e+00   3.2840732e+00   3.4428289e+00   3.5639315e+00   3.7063375e+00   3.9072163e+00   4.0731424e+00   4.1894030e+00   4.2875610e+00   4.3882726e+00   4.4778451e+00   4.5472494e+00   4.6482669e+00   4.7563620e+00   4.8647382e+00   4.9599722e+00   5.0638458e+00   5.1656278e+00   5.2987382e+00   5.4539930e+00   5.6148673e+00   5.7759327e+00   5.9212558e+00   6.0618931e+00   6.1688291e+00   6.2462329e+00   6.3580254e+00   6.4652194e+00   6.5802112e+00   6.7545838e+00   6.9776305e+00   7.1837909e+00   7.4064678e+00   7.6388489e+00   7.8111725e+00   8.0065747e+00   8.1898677e+00   8.3564388e+00   8.4670440e+00   8.5530569e+00   8.6411874e+00   8.7312391e+00   8.8205242e+00   8.9275555e+00
8.1991121e-01   7.1137350e+00   1.4540583e+01   1.6036438e+01   1.5900680e+01   1.5926571e+01   1.6007470e+01   1.5677842e+01   1.5939824e+01   1.5977189e+01   1.4772785e+01   1.4074623e+01   1.3743970e+01   1.3681706e+01   1.3798494e+01   1.3660473e+01   1.3429929e+01   1.3350147e+01   1.3259611e+01   1.3182487e+01   1.3353438e+01   1.3431301e+01   1.3645194e+01   1.3880199e+01   1.3892179e+01   1.3612585e+01   1.3443819e+01   1.3368753e+01   1.3319814e+01   1.3270008e+01   1.3272170e+01   1.3199151e+01   1.2873516e+01   1.2221596e+01   1.1698483e+01   1.1486476e+01   1.1393543e+01   1.1324549e+01   1.1278850e+01   1.1276936e+01   1.1250658e+01   1.1020833e+01   1.0568107e+01   9.9802176e+00   9.5026444e+00   8.9879800e+00   8.1883853e+00   7.1045519e+00   5.9911491e+00   5.2516370e+00   5.0020522e+00   5.1989673e+00   5.7655597e+00   6.4545195e+00   7.1493705e+00   7.5166725e+00   7.4926329e+00   7.2617626e+00   6.8471362e+00   6.2877976e+00   5.5865786e+00   5.1665408e+00   4.9396175e+00   4.7443489e+00   4.5582957e+00   4.3903409e+00   4.2330822e+00   4.0409467e+00   3.8736361e+00   3.6803033e+00   3.5019330e+00   3.1292860e+00   2.6783209e+00   2.2120498e+00   1.8161731e+00   1.4017206e+00   9.1216662e-01   4.1605769e-01   2.1966450e-01   2.1000000e-01   2.1000000e-01   2.0906054e-01   2.1000000e-01   2.1000000e-01   2.5819880e-01   6.0151939e-01   7.4763332e-01   9.1445642e-01   1.3862654e+00   1.8996998e+00   2.0354861e+00   2.0521684e+00   2.1113947e+00   2.1410391e+00   2.1714954e+00   2.1625606e+00   2.1492687e+00   2.1134050e+00   2.1078188e+00   2.0975713e+00   2.0376671e+00   1.9998478e+00   2.0095322e+00   1.9764763e+00   1.9603151e+00   1.9472737e+00   1.9480097e+00   1.9918325e+00   2.0345660e+00   2.0565539e+00   2.1329055e+00   2.1768642e+00   2.2368258e+00   2.3009316e+00   2.4174779e+00   2.5349304e+00   2.6753825e+00   2.8004920e+00   2.9264786e+00   3.0471836e+00   3.1763309e+00   3.3184348e+00   3.4746350e+00   3.6282645e+00   3.7886003e+00   3.9349994e+00   4.0617359e+00   4.1660318e+00   4.2734830e+00   4.3748469e+00   4.4675511e+00   4.5520638e+00   4.6415636e+00   4.7291009e+00   4.8068415e+00   4.9191998e+00   5.0353974e+00   5.1283984e+00   5.2621555e+00   5.4080758e+00   5.5587810e+00   5.7063779e+00   5.8379001e+00   5.9593460e+00   6.0252324e+00   6.0895548e+00   6.1738327e+00   6.2772588e+00   6.4085442e+00   6.6027002e+00   6.8226284e+00   7.0651945e+00   7.3163785e+00   7.5544954e+00   7.7763719e+00   7.9915721e+00   8.1551494e+00   8.3539465e+00   8.4888708e+00   8.5599418e+00   8.6803406e+00   8.7969231e+00   8.8732158e+00   8.9793459e+00
4.7970125e-01   3.2830030e+00   9.1957071e+00   1.6062299e+01   1.5954848e+01   1.6973539e+01   1.6305897e+01   1.5473404e+01   1.5254816e+01   1.5005378e+01   1.4905435e+01   1.5658294e+01   1.6493692e+01   1.3629740e+01   1.3576478e+01   1.3591978e+01   1.3434167e+01   1.3265780e+01   1.3147043e+01   1.3073143e+01   1.3094163e+01   1.3132499e+01   1.3440178e+01   1.4881296e+01   1.3938889e+01   1.3429806e+01   1.3331007e+01   1.3349768e+01   1.3341014e+01   1.3292659e+01   1.3288906e+01   1.3216499e+01   1.2796460e+01   1.2075536e+01   1.1528609e+01   1.1339791e+01   1.1315529e+01   1.1312773e+01   1.1321642e+01   1.1279444e+01   1.1229788e+01   1.0938546e+01   1.0373095e+01   9.7893290e+00   9.4543356e+00   8.9856762e+00   8.0435703e+00   6.9150526e+00   5.8940905e+00   5.3055569e+00   5.1373886e+00   5.1948907e+00   5.4490452e+00   5.8763479e+00   6.5020332e+00   6.9535305e+00   7.0566956e+00   6.9061192e+00   6.4845200e+00   6.0240467e+00   5.5215863e+00   5.1931421e+00   4.9720874e+00   4.7364292e+00   4.4718642e+00   4.2039657e+00   4.0291671e+00   3.8367049e+00   3.6633685e+00   3.4843524e+00   3.2795102e+00   2.8936374e+00   2.4785293e+00   2.0537012e+00   1.5444816e+00   9.3531764e-01   4.2701608e-01   2.1765796e-01   2.1000000e-01   2.1000000e-01   2.1000000e-01   2.0989045e-01   2.1000000e-01   2.1000000e-01   2.3712265e-01   3.6063520e-01   5.4747951e-01   9.5072006e-01   1.5053491e+00   1.8798472e+00   2.0405036e+00   2.1145019e+00   2.1693055e+00   2.2173058e+00   2.2341132e+00   2.2224839e+00   2.2331348e+00   2.2211628e+00   2.2091802e+00   2.1832827e+00   2.1761092e+00   2.1783068e+00   2.1509096e+00   2.0990334e+00   2.0719811e+00   2.0436072e+00   2.0341918e+00   2.0420974e+00   2.0463722e+00   2.0863914e+00   2.1399369e+00   2.2071912e+00   2.2389282e+00   2.3044944e+00   2.4240433e+00   2.5657257e+00   2.6928397e+00   2.8095728e+00   2.9410303e+00   3.0809655e+00   3.2091919e+00   3.3503905e+00   3.4895604e+00   3.6290384e+00   3.7726387e+00   3.9234971e+00   4.0447747e+00   4.1384274e+00   4.2218999e+00   4.3137204e+00   4.4070708e+00   4.4952320e+00   4.5875068e+00   4.6789459e+00   4.7890444e+00   4.8878980e+00   4.9986894e+00   5.0871018e+00   5.2059786e+00   5.3638659e+00   5.4939748e+00   5.6236101e+00   5.7386441e+00   5.7890773e+00   5.8452621e+00   5.9082107e+00   5.9835732e+00   6.0799577e+00   6.2336505e+00   6.4362184e+00   6.6651386e+00   6.9309594e+00   7.2043342e+00   7.4723986e+00   7.7285626e+00   7.9261720e+00   8.1333861e+00   8.3521675e+00   8.4877034e+00   8.5940987e+00   8.7138411e+00   8.8278860e+00   8.9235552e+00   9.0904781e+00
-1.8067189e-01   1.7118706e+00   7.0786928e+00   1.4941184e+01   1.5882429e+01   1.6519059e+01   1.6026489e+01   1.5722307e+01   1.5715626e+01   1.5890611e+01   1.4915546e+01   1.6933706e+01   1.6538432e+01   1.3974721e+01   1.3318516e+01   1.3332798e+01   1.3335694e+01   1.3198148e+01   1.3052677e+01   1.2960119e+01   1.3010467e+01   1.3155242e+01   1.3045842e+01   1.4069381e+01   1.3254932e+01   1.3256224e+01   1.3202367e+01   1.3113738e+01   1.3180927e+01   1.3185465e+01   1.3158203e+01   1.2910225e+01   1.2291553e+01   1.1659772e+01   1.1277906e+01   1.1138554e+01   1.1108121e+01   1.1016924e+01   1.0881928e+01   1.0758596e+01   1.0663347e+01   1.0426025e+01   1.0027281e+01   9.6367363e+00   9.3588134e+00   8.8646165e+00   8.0008311e+00   7.0674485e+00   6.1902832e+00   5.5784260e+00   5.3302204e+00   5.3256115e+00   5.4580875e+00   5.7370913e+00   6.2320868e+00   6.7839005e+00   7.0593806e+00   6.8862134e+00   6.2794543e+00   5.7065911e+00   5.4530032e+00   5.3322827e+00   5.2350782e+00   5.0021698e+00   4.5572125e+00   4.0537095e+00   3.7515665e+00   3.5781112e+00   3.4609268e+00   3.3433647e+00   3.1277302e+00   2.7404634e+00   2.2607593e+00   1.8071626e+00   1.3962568e+00   6.8367104e-01   2.1409994e-01   2.0941650e-01   2.1000000e-01   2.1000000e-01   2.1000000e-01   2.0467839e-01   2.1000000e-01   2.2586161e-01   2.2094247e-01   2.6253856e-01   6.2686473e-01   1.1793462e+00   1.6028093e+00   1.9353120e+00   2.1042490e+00   2.1876316e+00   2.2369551e+00   2.2399863e+00   2.2373501e+00   2.2397695e+00   2.2400000e+00   2.2400000e+00   2.2400000e+00   2.2367761e+00   2.2400000e+00   2.2395604e+00   2.2364343e+00   2.2228436e+00   2.1901866e+00   2.1628756e+00   2.1462704e+00   2.1152951e+00   2.1117516e+00   2.1338756e+00   2.1523402e+00   2.2215872e+00   2.2449944e+00   2.3373352e+00   2.4612105e+00   2.5827041e+00   2.7128249e+00   2.8372402e+00   2.9504457e+00   3.0750755e+00   3.2131330e+00   3.3435894e+00   3.4717511e+00   3.6001565e+00   3.7406752e+00   3.8666869e+00   3.9706843e+00   4.0533578e+00   4.1415121e+00   4.2379153e+00   4.3183185e+00   4.4197070e+00   4.5233645e+00   4.6221711e+00   4.7346752e+00   4.8485231e+00   4.9450058e+00   5.0106882e+00   5.1210354e+00   5.2480514e+00   5.3636763e+00   5.4710965e+00   5.5492570e+00   5.5940240e+00   5.6417180e+00   5.7125349e+00   5.7866630e+00   5.8756744e+00   6.0290499e+00   6.2536353e+00   6.4918348e+00   6.7319775e+00   7.0127425e+00   7.3423466e+00   7.6402518e+00   7.8957476e+00   8.1278145e+00   8.3472002e+00   8.4844948e+00   8.5978497e+00   8.7312746e+00   8.8679714e+00   9.0300247e+00   9.1472411e+00
5.3410360e-02   1.3612310e+00   3.9915065e+00   1.3247327e+01   1.6022687e+01   1.5860181e+01   1.6521727e+01   1.6266456e+01   1.5839356e+01   1.5593162e+01   1.4850533e+01   1.5667397e+01   1.4999137e+01   1.4142499e+01   1.3487677e+01   1.3133480e+01   1.3243676e+01   1.3364502e+01   1.3221618e+01   1.2915382e+01   1.2999035e+01   1.3449047e+01   1.3227950e+01   1.2932314e+01   1.2903968e+01   1.2970648e+01   1.3045606e+01   1.3062383e+01   1.2888751e+01   1.2954932e+01   1.3006263e+01   1.2348586e+01   1.1593507e+01   1.1070188e+01   1.0721936e+01   1.0574292e+01   1.0500733e+01   1.0341534e+01   1.0109851e+01   9.8878570e+00   9.7396582e+00   9.5737760e+00   9.4111877e+00   9.2214253e+00   8.9336851e+00   8.5014637e+00   7.9128302e+00   7.3494081e+00   6.6810130e+00   5.9370765e+00   5.4789787e+00   5.3948957e+00   5.5141881e+00   5.7319723e+00   6.1268741e+00   6.6121382e+00   6.9031553e+00   6.6570008e+00   6.0810947e+00   5.6245597e+00   5.4761494e+00   5.4622629e+00   5.4549335e+00   5.2110006e+00   4.6444823e+00   3.9696945e+00   3.5300133e+00   3.3939591e+00   3.3739105e+00   3.3322625e+00   3.1718730e+00   2.7262342e+00   2.0969003e+00   1.5717820e+00   1.1658194e+00   7.7042237e-01   4.6316493e-01   2.6654353e-01   2.1283614e-01   2.3638863e-01   2.3349715e-01   3.9533237e-01   6.0742352e-01  -4.7981058e-01   1.0029235e-01   4.1041642e-01   8.6039738e-01   1.2951675e+00   1.6708527e+00   2.0238598e+00   2.1796598e+00   2.2355306e+00   2.2400000e+00   2.2400000e+00   2.2367321e+00   2.2397158e+00   2.2400000e+00   2.2400000e+00   2.2400000e+00   2.2409395e+00   2.2400000e+00   2.2400000e+00   2.2400000e+00   2.2382140e+00   2.2394363e+00   2.2384696e+00   2.2339410e+00   2.2154428e+00   2.2059284e+00   2.2073293e+00   2.2227023e+00   2.2398501e+00   2.2508027e+00   2.3424081e+00   2.4679413e+00   2.5841198e+00   2.7006602e+00   2.8143822e+00   2.9292351e+00   3.0476995e+00   3.1774389e+00   3.3078920e+00   3.4226684e+00   3.5401993e+00   3.6458457e+00   3.7495275e+00   3.8580531e+00   3.9608699e+00   4.0514348e+00   4.1394122e+00   4.2368402e+00   4.3414347e+00   4.4525929e+00   4.5460637e+00   4.6282086e+00   4.6810794e+00   4.7294696e+00   4.7953790e+00   4.9118890e+00   5.0493680e+00   5.1679377e+00   5.2724667e+00   5.3301185e+00   5.3669401e+00   5.4181880e+00   5.4806391e+00   5.5536642e+00   5.6984961e+00   5.8652963e+00   6.0300652e+00   6.2104469e+00   6.4391293e+00   6.7457534e+00   7.1020612e+00   7.5083755e+00   7.8245627e+00   8.0974901e+00   8.3484362e+00   8.4837399e+00   8.6034770e+00   8.7831010e+00   8.9291079e+00   9.0579908e+00   9.1418080e+00
5.4322825e-01   1.3804557e+00   2.8173558e+00   6.3160147e+00   1.1404660e+01   1.4673088e+01   1.5830527e+01   1.6662822e+01   1.6384712e+01   1.5737399e+01   1.5158970e+01   1.5209916e+01   1.4246323e+01   1.4042442e+01   1.3700730e+01   1.3364707e+01   1.3059254e+01   1.3249734e+01   1.3259878e+01   1.3109373e+01   1.2942925e+01   1.2915725e+01   1.3010441e+01   1.2274919e+01   1.2309391e+01   1.2507814e+01   1.2631707e+01   1.3071694e+01   1.2543862e+01   1.3205319e+01   1.2653586e+01   1.1816467e+01   1.1195491e+01   1.0570499e+01   1.0141078e+01   9.9544226e+00   9.8578254e+00   9.6882976e+00   9.4141018e+00   9.1663447e+00   8.9180868e+00   8.6696572e+00   8.5499360e+00   8.3777950e+00   8.1460191e+00   7.9582564e+00   7.7542619e+00   7.5216016e+00   7.0934710e+00   6.3493084e+00   5.6523205e+00   5.4074025e+00   5.4640435e+00   5.6194206e+00   5.8426547e+00   6.0907091e+00   6.1755485e+00   6.0054688e+00   5.7487314e+00   5.5309387e+00   5.4018246e+00   5.3420550e+00   5.2738402e+00   4.9788215e+00   4.4302582e+00   3.8689525e+00   3.5182410e+00   3.4015663e+00   3.3770373e+00   3.3265334e+00   3.1776979e+00   2.6856547e+00   1.9802391e+00   1.4526127e+00   1.1808332e+00   1.1080920e+00   1.1181756e+00   8.3547312e-01   7.6600571e-01   1.0101961e+00   1.0712680e+00   8.0967757e-01  -1.2918007e+00  -1.6374149e+00   8.1792139e-01   7.1132880e-01   1.0201002e+00   1.3679223e+00   1.7400473e+00   2.0717916e+00   2.2217446e+00   2.2399912e+00   2.2400000e+00   2.2400000e+00   2.2379990e+00   2.2398260e+00   2.2400000e+00   2.2400000e+00   2.2400000e+00   2.2411110e+00   2.2400000e+00   2.2400000e+00   2.2400000e+00   2.2388771e+00   2.2399023e+00   2.2400000e+00   2.2400000e+00   2.2400000e+00   2.2388267e+00   2.2420416e+00   2.2534890e+00   2.2823294e+00   2.3488872e+00   2.4530521e+00   2.5717408e+00   2.6971417e+00   2.8074781e+00   2.9189840e+00   3.0163940e+00   3.1193925e+00   3.2113499e+00   3.3002052e+00   3.4100235e+00   3.4859331e+00   3.5656203e+00   3.6673854e+00   3.7843551e+00   3.8949194e+00   3.9800990e+00   4.0875779e+00   4.1928755e+00   4.2718005e+00   4.3318913e+00   4.3729128e+00   4.3973784e+00   4.4463816e+00   4.4925461e+00   4.5636096e+00   4.6899714e+00   4.8275292e+00   4.9142267e+00   5.0169349e+00   5.0979113e+00   5.1338795e+00   5.1840656e+00   5.2381510e+00   5.3462877e+00   5.5096630e+00   5.6592914e+00   5.7936254e+00   5.9111628e+00   6.0609437e+00   6.3196062e+00   6.7322903e+00   7.2460090e+00   7.6922528e+00   8.0297649e+00   8.3405818e+00   8.4868669e+00   8.6365999e+00   8.8224010e+00   8.9274500e+00   8.9985270e+00   9.0904388e+00
1.3714671e+00   1.5981768e+00   2.2619882e+00   2.8378946e+00   4.1408115e+00   7.5982185e+00   1.3122891e+01   1.5460264e+01   1.5680431e+01   1.5621587e+01   1.5408012e+01   1.5204058e+01   1.4505147e+01   1.4044078e+01   1.3890619e+01   1.3621035e+01   1.3414870e+01   1.2931478e+01   1.2995571e+01   1.2816736e+01   1.2387359e+01   1.2254750e+01   1.2720388e+01   1.2126784e+01   1.1935532e+01   1.1995831e+01   1.2111604e+01   1.2163220e+01   1.2316577e+01   1.2343521e+01   1.1989403e+01   1.1509935e+01   1.1173715e+01   1.0481069e+01   1.0044440e+01   9.8662050e+00   9.6382854e+00   9.3490478e+00   9.1616186e+00   8.9567323e+00   8.4169734e+00   7.9744812e+00   7.7296049e+00   7.5548794e+00   7.4293591e+00   7.4513464e+00   7.5386647e+00   7.5549578e+00   7.3188390e+00   6.6306383e+00   5.8499107e+00   5.4311548e+00   5.3676368e+00   5.3810950e+00   5.3419635e+00   5.2324388e+00   5.1276850e+00   5.0833352e+00   5.0946142e+00   5.0748176e+00   5.0012257e+00   4.8122255e+00   4.6026485e+00   4.2990931e+00   3.9726679e+00   3.7636462e+00   3.6543624e+00   3.5582023e+00   3.4766694e+00   3.3551387e+00   3.0726013e+00   2.5122252e+00   1.8380730e+00   1.4072564e+00   1.2343317e+00   1.2099133e+00   1.2100000e+00   1.2012427e+00   1.1364100e+00   5.6248812e-01  -4.2296269e-01  -1.4940471e+00  -3.7606972e-01   9.6042117e-01   1.2065304e+00   1.1490201e+00   1.2216009e+00   1.4157536e+00   1.6915819e+00   1.9619060e+00   2.0703019e+00   2.1503612e+00   2.2045389e+00   2.2188614e+00   2.2404204e+00   2.2449806e+00   2.2501223e+00   2.2506874e+00   2.2592402e+00   2.2669987e+00   2.2637901e+00   2.2589452e+00   2.2681424e+00   2.2627074e+00   2.2572798e+00   2.2574651e+00   2.2515815e+00   2.2421689e+00   2.2407529e+00   2.2793602e+00   2.3464289e+00   2.4184556e+00   2.5096344e+00   2.6180934e+00   2.7271370e+00   2.8399843e+00   2.9363930e+00   3.0255875e+00   3.1223557e+00   3.1965313e+00   3.2668959e+00   3.3558937e+00   3.4312168e+00   3.4845606e+00   3.5680897e+00   3.6568979e+00   3.7539371e+00   3.8528968e+00   3.9566291e+00   4.0241760e+00   4.0581928e+00   4.0823970e+00   4.1281568e+00   4.1821488e+00   4.2189984e+00   4.2731675e+00   4.3218974e+00   4.3477051e+00   4.4568305e+00   4.5805765e+00   4.6715580e+00   4.7464946e+00   4.8221027e+00   4.9234360e+00   4.9500819e+00   5.0282943e+00   5.1508585e+00   5.2688207e+00   5.3772896e+00   5.4316458e+00   5.5059046e+00   5.6000449e+00   5.8468844e+00   6.2959150e+00   6.9064698e+00   7.5035759e+00   7.9369081e+00   8.3140074e+00   8.4882694e+00   8.6819025e+00   8.7801655e+00   8.8865922e+00   8.9239691e+00   9.0529275e+00
1.7405457e+00   1.6071138e+00   1.0351904e+00   1.1147976e+00   1.5731674e+00   3.6728577e+00   7.1837032e+00   1.1788982e+01   1.4009434e+01   1.4995471e+01   1.5107481e+01   1.5209925e+01   1.4985352e+01   1.5057226e+01   1.3991553e+01   1.3843755e+01   1.3541358e+01   1.3324010e+01   1.3093889e+01   1.2872432e+01   1.2083117e+01   1.1772477e+01   1.2128310e+01   1.2076459e+01   1.1726511e+01   1.1670751e+01   1.1788239e+01   1.1929374e+01   1.2472837e+01   1.3354034e+01   1.2043229e+01   1.1674276e+01   1.1403845e+01   1.1065528e+01   1.0382384e+01   9.7913808e+00   9.5626239e+00   9.2226885e+00   9.8581404e+00   9.2877153e+00   8.3727753e+00   7.8182363e+00   7.4289463e+00   7.2016128e+00   7.1616291e+00   7.1929354e+00   7.3200290e+00   7.4687221e+00   7.2636150e+00   6.7241505e+00   6.0228730e+00   5.5398800e+00   5.3258974e+00   5.1554092e+00   4.7915304e+00   4.3066666e+00   4.0642162e+00   4.0712689e+00   4.1758875e+00   4.2247182e+00   4.1590617e+00   3.9564574e+00   3.7448537e+00   3.5961068e+00   3.5424202e+00   3.6103688e+00   3.6983054e+00   3.7061418e+00   3.5566441e+00   3.2858081e+00   2.7952051e+00   2.1562678e+00   1.6521987e+00   1.3627303e+00   1.2233095e+00   1.2100137e+00   1.2100000e+00   1.0974088e+00  -1.1293239e+00  -2.0034579e+00  -1.3296673e+00   5.1057404e-01   1.2039755e+00   1.2100000e+00   1.2113716e+00   1.2784039e+00   1.3625040e+00   1.4257873e+00   1.5266889e+00   1.6192082e+00   1.6651645e+00   1.7589905e+00   1.8524342e+00   1.9272903e+00   2.0040326e+00   2.0584300e+00   2.1358968e+00   2.2193252e+00   2.2842736e+00   2.3535123e+00   2.3688685e+00   2.3736957e+00   2.4171375e+00   2.4096651e+00   2.3630440e+00   2.3338935e+00   2.3320204e+00   2.3259049e+00   2.3271371e+00   2.3644963e+00   2.4685145e+00   2.6083309e+00   2.6604569e+00   2.7548241e+00   2.8407553e+00   2.9419943e+00   3.0226763e+00   3.1021929e+00   3.1971156e+00   3.2688961e+00   3.3452240e+00   3.3795144e+00   3.4381911e+00   3.5122025e+00   3.5788591e+00   3.6313363e+00   3.6992563e+00   3.7553739e+00   3.7699902e+00   3.7896894e+00   3.8449630e+00   3.9070040e+00   3.9556210e+00   3.9831504e+00   4.0535331e+00   4.0316885e+00   4.0952091e+00   4.0901901e+00   4.1837930e+00   4.3076815e+00   4.3893625e+00   4.4512688e+00   4.5328233e+00   4.6842984e+00   4.7440110e+00   4.8397286e+00   4.9175823e+00   5.0068838e+00   5.0782075e+00   5.1371508e+00   5.1660264e+00   5.2295458e+00   5.4286977e+00   5.8499061e+00   6.4513204e+00   7.1097745e+00   7.7381912e+00   8.2548740e+00   8.4942244e+00   8.6288660e+00   8.6950013e+00   8.7449348e+00   8.8063599e+00   8.9651542e+00
1.8274471e+00   1.3378847e+00   2.5122994e-02  -6.8891198e-01  -9.3980611e-01  -6.2932844e-01   1.6757102e-01   2.0746738e+00   5.9691281e+00   8.7513676e+00   9.4642135e+00   1.3550898e+01   1.4704756e+01   1.4796027e+01   1.4510737e+01   1.3951474e+01   1.3550904e+01   1.3040880e+01   1.2741339e+01   1.2486683e+01   1.2427067e+01   1.1593984e+01   1.1544384e+01   1.1637568e+01   1.1501169e+01   1.1376069e+01   1.1021985e+01   1.1146287e+01   1.1530004e+01   1.1522371e+01   1.1579658e+01   1.1498836e+01   1.1666100e+01   1.2175607e+01   1.0676502e+01   9.6786381e+00   9.3612618e+00   8.9266328e+00   9.9220910e+00   9.7755017e+00   8.5371828e+00   7.8026350e+00   7.3553980e+00   7.1315564e+00   7.4077724e+00   7.2931453e+00   6.8259051e+00   7.1849161e+00   6.6706167e+00   6.5976969e+00   6.2496793e+00   5.6740273e+00   5.3531697e+00   5.0454896e+00   4.4982839e+00   3.8853201e+00   3.4781680e+00   3.3712105e+00   3.5100483e+00   3.5189469e+00   3.3343230e+00   3.1500063e+00   3.0923427e+00   3.1250761e+00   3.2548105e+00   3.4525270e+00   3.6366987e+00   3.6524242e+00   3.4817355e+00   3.0029861e+00   2.2823947e+00   1.7384935e+00   1.4784567e+00   1.3145208e+00   1.2146533e+00   1.2100000e+00   1.2100000e+00   1.6711055e-01  -2.1532231e+00  -8.4445029e-01   6.8590277e-01   1.2058872e+00   1.2100000e+00   1.2100000e+00   1.2102506e+00   1.2497348e+00   1.3635379e+00   1.4039147e+00   1.4102137e+00   1.3788734e+00   1.3859922e+00   1.4337598e+00   1.4720402e+00   1.5149623e+00   1.5724019e+00   1.6661585e+00   1.7311547e+00   1.7830528e+00   1.8801837e+00   1.9337043e+00   1.9897732e+00   2.0843453e+00   2.1713568e+00   2.1996788e+00   2.2696652e+00   2.3491460e+00   2.4227933e+00   2.4774184e+00   2.4895260e+00   2.5320480e+00   2.6337448e+00   2.6547192e+00   2.7416822e+00   2.8078379e+00   2.8788421e+00   2.9371530e+00   3.0025123e+00   3.0656953e+00   3.1385115e+00   3.2251108e+00   3.2977479e+00   3.3128520e+00   3.3572063e+00   3.3966779e+00   3.4474805e+00   3.4670280e+00   3.4882595e+00   3.5226032e+00   3.5285239e+00   3.5706762e+00   3.6041226e+00   3.6514677e+00   3.6712201e+00   3.7168484e+00   3.7420032e+00   3.7736001e+00   3.7996001e+00   3.7975035e+00   3.8650637e+00   3.9836498e+00   4.0499492e+00   4.1582729e+00   4.2513585e+00   4.3965220e+00   4.5088560e+00   4.5959444e+00   4.6589963e+00   4.7356255e+00   4.7998594e+00   4.8568620e+00   4.8970252e+00   4.9854654e+00   5.1069349e+00   5.3717373e+00   5.8115092e+00   6.2925741e+00   7.0456601e+00   7.9789146e+00   8.3058627e+00   8.3389728e+00   8.3854139e+00   8.4337991e+00   8.5278221e+00   8.6312079e+00
1.8352156e+00  -2.1563983e-01  -2.2426492e+00  -2.5084788e+00  -2.5598124e+00  -2.6117730e+00  -2.1128287e+00  -1.1676383e+00  -3.2633110e-01  -4.4095036e-03   2.4415452e+00   6.2887616e+00   1.3320065e+01   1.4445663e+01   1.4180967e+01   1.3979279e+01   1.3308231e+01   1.2896679e+01   1.2605729e+01   1.2579605e+01   1.2225850e+01   1.1472328e+01   1.1129806e+01   1.1183440e+01   1.1381294e+01   1.1905085e+01   1.0827924e+01   1.0674340e+01   1.0741901e+01   1.0904737e+01   1.1096945e+01   1.1075326e+01   1.0919776e+01   1.1596577e+01   1.0313648e+01   1.0191594e+01   9.8787738e+00   8.7814755e+00   8.5601916e+00   8.7216609e+00   7.9008269e+00   7.6427289e+00   7.0967157e+00   6.9981593e+00   7.7295965e+00   7.1596928e+00   6.5309574e+00   6.2440324e+00   6.2864038e+00   6.5147142e+00   6.3519350e+00   5.7374991e+00   5.3330978e+00   4.9535881e+00   4.4986427e+00   4.1376937e+00   3.4627236e+00   3.0243785e+00   3.2487953e+00   3.2278915e+00   2.7925782e+00   2.5274256e+00   2.5833882e+00   2.7814752e+00   2.8862300e+00   3.0804397e+00   3.3581374e+00   3.4405093e+00   3.2318508e+00   2.6116986e+00   1.9098251e+00   1.5085317e+00   1.4006046e+00   1.2786157e+00   1.2117060e+00   1.2100000e+00   1.2081548e+00  -7.1231659e-01  -2.3672129e+00  -4.9215606e-01   7.8796870e-01   1.2060721e+00   1.2100000e+00   1.2100000e+00   1.2148778e+00   1.2702028e+00   1.3128459e+00   1.3426032e+00   1.3397550e+00   1.3209701e+00   1.2840912e+00   1.2952808e+00   1.3085874e+00   1.3115092e+00   1.3449910e+00   1.4065139e+00   1.4154138e+00   1.4184561e+00   1.4663587e+00   1.4933950e+00   1.5455100e+00   1.6034349e+00   1.6958114e+00   1.7797840e+00   1.8514347e+00   1.9820583e+00   2.0813766e+00   2.2324983e+00   2.4171654e+00   2.5190552e+00   2.5999405e+00   2.6665871e+00   2.7061154e+00   2.7523953e+00   2.7999257e+00   2.8542426e+00   2.9145715e+00   2.9898553e+00   3.0516276e+00   3.0715210e+00   3.1230643e+00   3.1312583e+00   3.1499826e+00   3.1762397e+00   3.1694088e+00   3.2102279e+00   3.2116892e+00   3.2118741e+00   3.2072632e+00   3.2443590e+00   3.2298531e+00   3.2594334e+00   3.3120761e+00   3.3713119e+00   3.4280508e+00   3.4502889e+00   3.4771759e+00   3.5052690e+00   3.5377389e+00   3.6682065e+00   3.7282332e+00   3.8356474e+00   3.9401247e+00   4.0839349e+00   4.2216954e+00   4.3192454e+00   4.3891695e+00   4.5017913e+00   4.5655889e+00   4.6276679e+00   4.7144999e+00   4.8311597e+00   4.9823705e+00   5.1412913e+00   5.2722680e+00   5.3595816e+00   5.7046092e+00   6.5864391e+00   6.9982602e+00   6.9816910e+00   6.9657504e+00   6.9522993e+00   6.9382855e+00   6.9244993e+00
2.5772297e-01  -2.4383198e+00  -2.6215043e+00  -2.7551221e+00  -2.8135053e+00  -2.7412772e+00  -2.3211008e+00  -1.9403380e+00  -2.6478266e+00  -2.0969672e+00  -3.2608908e-01   2.6218353e+00   1.2945244e+01   1.4209586e+01   1.4153395e+01   1.3727329e+01   1.3412200e+01   1.2900088e+01   1.2503125e+01   1.2384302e+01   1.2009518e+01   1.1520262e+01   1.1229501e+01   1.0697148e+01   1.0624200e+01   1.0520907e+01   1.0574564e+01   1.0467468e+01   1.0283164e+01   1.0331635e+01   1.0390486e+01   1.0525238e+01   1.0330655e+01   1.0343321e+01   1.0839906e+01   1.0573388e+01   1.0080449e+01   8.8060736e+00   8.1959328e+00   7.7890936e+00   7.9170545e+00   8.2587822e+00   7.1308142e+00   6.3958282e+00   6.3134387e+00   6.4122365e+00   6.1392772e+00   6.0580095e+00   5.9220124e+00   5.9996973e+00   6.2963671e+00   5.7095066e+00   5.0619773e+00   4.8788558e+00   4.6595178e+00   4.3729032e+00   3.6316045e+00   2.8807057e+00   2.8197506e+00   2.5845287e+00   2.6742096e+00   2.6304337e+00   2.4515387e+00   2.6276472e+00   2.5655500e+00   2.4655659e+00   2.8099636e+00   3.1864407e+00   2.8398695e+00   2.2071920e+00   1.8709892e+00   1.6413748e+00   1.5188123e+00   1.3873428e+00   1.2594037e+00   1.2162879e+00   1.2080703e+00   1.1229705e-01  -2.7210495e+00  -2.1781053e+00  -6.6902092e-01   1.1795235e+00   1.2100000e+00   1.2119966e+00   1.2446995e+00   1.2927811e+00   1.2738769e+00   1.2426540e+00   1.2428960e+00   1.2414562e+00   1.2473294e+00   1.2388971e+00   1.2454643e+00   1.2598733e+00   1.2735539e+00   1.2876398e+00   1.2671192e+00   1.2545988e+00   1.2684012e+00   1.3163585e+00   1.3432483e+00   1.3934789e+00   1.4750446e+00   1.5689201e+00   1.6504633e+00   1.7084074e+00   1.6954299e+00   1.7145751e+00   1.8511941e+00   1.9723224e+00   2.1263527e+00   2.3353577e+00   2.4739492e+00   2.5721971e+00   2.6848133e+00   2.7551950e+00   2.8149928e+00   2.8600794e+00   2.8834609e+00   2.8681945e+00   2.8664406e+00   2.8535273e+00   2.8387815e+00   2.8282807e+00   2.8471652e+00   2.8697944e+00   2.8636155e+00   2.8479456e+00   2.8415096e+00   2.8419645e+00   2.8802330e+00   2.9007247e+00   2.9394522e+00   3.0264978e+00   3.0906841e+00   3.1043819e+00   3.1343718e+00   3.1264457e+00   3.1935005e+00   3.3393590e+00   3.4091197e+00   3.4865744e+00   3.5946688e+00   3.7632032e+00   3.8805442e+00   4.0202932e+00   4.1367338e+00   4.2497537e+00   4.3402097e+00   4.4159809e+00   4.5279327e+00   4.6564673e+00   4.8039347e+00   4.9285399e+00   5.0214236e+00   5.0954287e+00   5.1841087e+00   5.2272459e+00   5.2325192e+00   5.1691766e+00   5.1352198e+00   5.0733592e+00   5.0251263e+00   4.9743297e+00
